ply
format ascii 1.0
element vertex 942
property float x
property float y
property float z
property uchar red
property uchar green
property uchar blue
end_header
-1.99887e-10 -2.53292e-10 -3.36868e-13 174 158 133
-2.00224e-10 -2.53292e-10 -3.36868e-13 174 158 133
-2.0056e-10 -2.53292e-10 -3.36868e-13 174 158 133
-2.00897e-10 -2.53292e-10 -3.36868e-13 174 158 133
-2.01234e-10 -2.53292e-10 -3.36868e-13 174 158 133
-2.01571e-10 -2.53292e-10 -3.36868e-13 174 158 133
-2.01908e-10 -2.53292e-10 -3.36868e-13 174 158 133
-2.02245e-10 -2.53292e-10 -3.36868e-13 174 158 133
-2.02582e-10 -2.53292e-10 -3.36868e-13 174 158 133
-2.02919e-10 -2.53292e-10 -3.36868e-13 174 158 133
-2.03255e-10 -2.53292e-10 -3.36868e-13 174 158 133
-1.99887e-10 -2.53628e-10 -3.36868e-13 174 158 133
-2.00224e-10 -2.53628e-10 -3.36868e-13 174 158 133
-2.0056e-10 -2.53628e-10 -3.36868e-13 174 158 133
-2.00897e-10 -2.53628e-10 -3.36868e-13 174 158 133
-2.01234e-10 -2.53628e-10 -3.36868e-13 174 158 133
-2.01571e-10 -2.53628e-10 -3.36868e-13 174 158 133
-2.01908e-10 -2.53628e-10 -3.36868e-13 174 158 133
-2.02245e-10 -2.53628e-10 -3.36868e-13 174 158 133
-2.02582e-10 -2.53628e-10 -3.36868e-13 174 158 133
-1.99887e-10 -2.53965e-10 -3.36868e-13 174 158 133
-2.00224e-10 -2.53965e-10 -3.36868e-13 174 158 133
-2.0056e-10 -2.53965e-10 -3.36868e-13 174 158 133
-2.00897e-10 -2.53965e-10 -3.36868e-13 174 158 133
-2.01234e-10 -2.53965e-10 -3.36868e-13 174 158 133
-2.01571e-10 -2.53965e-10 -3.36868e-13 174 158 133
-2.01908e-10 -2.53965e-10 -3.36868e-13 174 158 133
-2.02245e-10 -2.53965e-10 -3.36868e-13 174 158 133
-1.9955e-10 -2.54302e-10 -3.36868e-13 174 158 133
-1.99887e-10 -2.54302e-10 -3.36868e-13 174 158 134
-2.00224e-10 -2.54302e-10 -3.36868e-13 174 158 135
-2.0056e-10 -2.54302e-10 -3.36868e-13 174 158 134
-2.00897e-10 -2.54302e-10 -3.36868e-13 174 158 134
-2.01234e-10 -2.54302e-10 -3.36868e-13 174 158 134
-2.01571e-10 -2.54302e-10 -3.36868e-13 174 158 134
-2.01908e-10 -2.54302e-10 -3.36868e-13 174 158 134
-1.98202e-10 -2.54639e-10 -3.36868e-13 174 158 133
-1.98539e-10 -2.54639e-10 -3.36868e-13 174 158 133
-1.9955e-10 -2.54639e-10 -3.36868e-13 174 158 133
-1.99887e-10 -2.54639e-10 -3.36868e-13 174 158 134
-2.00224e-10 -2.54639e-10 -3.36868e-13 174 158 135
-2.0056e-10 -2.54639e-10 -3.36868e-13 174 158 135
-2.00897e-10 -2.54639e-10 -3.36868e-13 174 158 135
-2.01234e-10 -2.54639e-10 -3.36868e-13 174 158 135
-1.98202e-10 -2.54976e-10 -3.36868e-13 174 158 134
-1.98539e-10 -2.54976e-10 -3.36868e-13 174 158 134
-1.98876e-10 -2.54976e-10 -3.36868e-13 174 158 134
-1.99213e-10 -2.54976e-10 -3.36868e-13 174 158 134
-1.9955e-10 -2.54976e-10 -3.36868e-13 174 158 134
-1.99887e-10 -2.54976e-10 -3.36868e-13 174 158 134
-2.00224e-10 -2.54976e-10 -3.36868e-13 174 158 134
-2.0056e-10 -2.54976e-10 -3.36868e-13 174 158 135
-1.98202e-10 -2.55313e-10 -3.36868e-13 174 158 135
-1.98539e-10 -2.55313e-10 -3.36868e-13 174 158 135
-1.98876e-10 -2.55313e-10 -3.36868e-13 174 158 135
-1.99213e-10 -2.55313e-10 -3.36868e-13 174 158 135
-1.9955e-10 -2.55313e-10 -3.36868e-13 174 158 135
-1.99887e-10 -2.55313e-10 -3.36868e-13 174 158 135
-7.01525e-08 -2.8595e-08 -3.77292e-11 179 163 137
-1.98202e-10 -2.5565e-10 -3.36868e-13 173 157 134
-1.98539e-10 -2.5565e-10 -3.36868e-13 174 158 135
-7.89216e-08 -3.22543e-08 -4.24454e-11 179 163 137
-7.01525e-08 -2.87082e-08 -3.77292e-11 179 163 137
-7.01525e-08 -2.87459e-08 -3.77292e-11 179 163 137
-4.85932e-08 -2.00316e-08 -2.61202e-11 180 164 138
-7.01902e-08 -2.89723e-08 -3.77292e-11 179 163 137
-6.36805e-08 -2.64486e-08 -3.39563e-11 180 164 138
-7.07562e-08 -2.94251e-08 -3.77292e-11 180 164 138
-5.79223e-08 -2.40751e-08 -3.08693e-11 180 164 138
-4.90112e-08 -2.03973e-08 -2.61202e-11 180 164 138
-6.37145e-08 -2.65505e-08 -3.39563e-11 180 164 138
-5.80457e-08 -2.41368e-08 -3.08693e-11 180 164 138
-6.38503e-08 -2.65844e-08 -3.39563e-11 180 164 138
-2.77758e-08 -1.15585e-08 -1.47636e-11 180 164 138
-7.09448e-08 -2.9576e-08 -3.77292e-11 180 164 138
-3.19421e-08 -1.33092e-08 -1.69781e-11 180 164 138
-4.25895e-08 -1.77682e-08 -2.26375e-11 180 164 138
-4.91418e-08 -2.05279e-08 -2.61202e-11 180 164 138
-6.44955e-08 -2.67203e-08 -3.39563e-11 180 164 138
-7.16617e-08 -2.97269e-08 -3.77292e-11 180 164 138
-7.16617e-08 -2.97646e-08 -3.77292e-11 180 164 138
-7.16617e-08 -2.98024e-08 -3.77292e-11 180 164 138
-2.87649e-08 -1.24295e-08 -1.47636e-11 179 165 138
-2.87649e-08 -1.24443e-08 -1.47636e-11 179 165 138
-7.34727e-08 -3.18397e-08 -3.77292e-11 179 165 138
-3.00724e-08 -1.30253e-08 -1.54347e-11 179 165 138
-3.67552e-08 -1.59387e-08 -1.88646e-11 179 165 138
-5.51328e-08 -2.39364e-08 -2.82969e-11 179 165 138
-3.93567e-08 -1.72758e-08 -1.99743e-11 180 166 139
-4.18165e-08 -1.83768e-08 -2.12227e-11 180 166 139
-5.14665e-08 -2.26437e-08 -2.61202e-11 180 166 139
-6.0824e-08 -2.67916e-08 -3.08693e-11 180 166 139
-6.69064e-08 -2.95047e-08 -3.39563e-11 179 165 138
-7.43404e-08 -3.28207e-08 -3.77292e-11 179 165 137
-7.43404e-08 -3.28584e-08 -3.77292e-11 180 165 137
-6.08549e-08 -2.68842e-08 -3.08693e-11 180 165 137
-5.59534e-08 -2.47853e-08 -2.82969e-11 181 166 137
-7.46045e-08 -3.30848e-08 -3.77292e-11 181 166 137
-5.58988e-10 -4.64845e-10 -3.36868e-13 182 168 141
-5.58988e-10 -4.65182e-10 -3.36868e-13 182 168 141
-5.59325e-10 -4.65182e-10 -3.36868e-13 182 168 141
-5.58988e-10 -4.65518e-10 -3.36868e-13 182 168 141
-5.59325e-10 -4.65518e-10 -3.36868e-13 182 168 141
-5.58988e-10 -4.65855e-10 -3.36868e-13 182 168 141
-5.59325e-10 -4.65855e-10 -3.36868e-13 182 168 141
-5.59662e-10 -4.65855e-10 -3.36868e-13 182 168 141
-5.58988e-10 -4.66192e-10 -3.36868e-13 182 168 141
-5.59325e-10 -4.66192e-10 -3.36868e-13 182 168 141
-5.59662e-10 -4.66192e-10 -3.36868e-13 182 168 141
-5.58988e-10 -4.66529e-10 -3.36868e-13 182 168 141
-5.59325e-10 -4.66529e-10 -3.36868e-13 182 168 141
-5.59662e-10 -4.66529e-10 -3.36868e-13 182 168 141
-5.58988e-10 -4.66866e-10 -3.36868e-13 182 168 141
-5.59325e-10 -4.66866e-10 -3.36868e-13 182 168 141
-5.59662e-10 -4.66866e-10 -3.36868e-13 182 168 141
-5.59999e-10 -4.66866e-10 -3.36868e-13 182 168 141
-5.63684e-10 -4.71412e-10 -3.39903e-13 182 168 141
-5.58988e-10 -4.67203e-10 -3.36868e-13 182 168 141
-5.59325e-10 -4.67203e-10 -3.36868e-13 182 168 141
-5.59662e-10 -4.67203e-10 -3.36868e-13 182 168 141
-5.59999e-10 -4.67203e-10 -3.36868e-13 182 168 141
-5.58988e-10 -4.6754e-10 -3.36868e-13 182 168 141
-5.59325e-10 -4.6754e-10 -3.36868e-13 182 168 141
-5.59662e-10 -4.6754e-10 -3.36868e-13 182 168 141
-5.59999e-10 -4.6754e-10 -3.36868e-13 182 168 141
-5.60335e-10 -4.6754e-10 -3.36868e-13 182 168 141
-5.59325e-10 -4.67876e-10 -3.36868e-13 182 168 141
-5.59662e-10 -4.67876e-10 -3.36868e-13 182 168 141
-5.59999e-10 -4.67876e-10 -3.36868e-13 182 168 141
-5.60335e-10 -4.67876e-10 -3.36868e-13 182 168 141
-5.59325e-10 -4.68213e-10 -3.36868e-13 182 168 141
-5.59999e-10 -4.68213e-10 -3.36868e-13 182 168 141
-5.60335e-10 -4.68213e-10 -3.36868e-13 182 168 141
-5.59999e-10 -4.6855e-10 -3.36868e-13 182 168 141
-5.60335e-10 -4.6855e-10 -3.36868e-13 182 168 141
-5.60672e-10 -4.6855e-10 -3.36868e-13 182 168 141
-5.59999e-10 -4.68887e-10 -3.36868e-13 182 168 141
-5.60335e-10 -4.68887e-10 -3.36868e-13 182 168 141
-5.60672e-10 -4.68887e-10 -3.36868e-13 182 168 141
-5.59999e-10 -4.69224e-10 -3.36868e-13 182 168 141
-5.60335e-10 -4.69224e-10 -3.36868e-13 182 168 141
-5.60672e-10 -4.69224e-10 -3.36868e-13 182 168 141
-5.61009e-10 -4.69224e-10 -3.36868e-13 182 168 141
-5.60335e-10 -4.69561e-10 -3.36868e-13 182 168 141
-5.60672e-10 -4.69561e-10 -3.36868e-13 182 168 141
-5.61009e-10 -4.69561e-10 -3.36868e-13 182 168 141
-5.60335e-10 -4.69898e-10 -3.36868e-13 182 168 141
-5.60672e-10 -4.69898e-10 -3.36868e-13 182 168 141
-5.61009e-10 -4.69898e-10 -3.36868e-13 182 168 141
-5.61346e-10 -4.69898e-10 -3.36868e-13 182 168 141
-5.60672e-10 -4.70235e-10 -3.36868e-13 182 168 141
-5.61009e-10 -4.70235e-10 -3.36868e-13 182 168 141
-5.61346e-10 -4.70235e-10 -3.36868e-13 182 168 141
-5.60672e-10 -4.70571e-10 -3.36868e-13 182 168 141
-5.61009e-10 -4.70571e-10 -3.36868e-13 182 168 141
-5.61346e-10 -4.70571e-10 -3.36868e-13 182 168 141
-5.61683e-10 -4.70571e-10 -3.36868e-13 182 168 141
-5.60672e-10 -4.70908e-10 -3.36868e-13 182 168 141
-5.61009e-10 -4.70908e-10 -3.36868e-13 182 168 141
-5.61346e-10 -4.70908e-10 -3.36868e-13 182 168 141
-5.61683e-10 -4.70908e-10 -3.36868e-13 182 168 141
-5.6202e-10 -4.70908e-10 -3.36868e-13 182 168 141
-5.60672e-10 -4.71245e-10 -3.36868e-13 182 168 141
-5.61009e-10 -4.71245e-10 -3.36868e-13 182 168 141
-5.61346e-10 -4.71245e-10 -3.36868e-13 182 168 141
-5.61683e-10 -4.71245e-10 -3.36868e-13 182 168 141
-5.6202e-10 -4.71245e-10 -3.36868e-13 182 168 141
-5.60672e-10 -4.71582e-10 -3.36868e-13 182 168 141
-5.61009e-10 -4.71582e-10 -3.36868e-13 182 168 141
-5.61346e-10 -4.71582e-10 -3.36868e-13 182 168 141
-5.61683e-10 -4.71582e-10 -3.36868e-13 182 168 141
-5.6202e-10 -4.71582e-10 -3.36868e-13 182 168 141
-5.62357e-10 -4.71582e-10 -3.36868e-13 182 168 141
-5.60672e-10 -4.71919e-10 -3.36868e-13 182 168 141
-5.61009e-10 -4.71919e-10 -3.36868e-13 182 168 141
-5.61346e-10 -4.71919e-10 -3.36868e-13 182 168 141
-5.61683e-10 -4.71919e-10 -3.36868e-13 182 168 141
-5.6202e-10 -4.71919e-10 -3.36868e-13 182 168 141
-5.62357e-10 -4.71919e-10 -3.36868e-13 182 168 141
-5.62694e-10 -4.71919e-10 -3.36868e-13 182 168 141
-5.61009e-10 -4.72256e-10 -3.36868e-13 182 168 141
-5.61346e-10 -4.72256e-10 -3.36868e-13 182 168 141
-5.61683e-10 -4.72256e-10 -3.36868e-13 182 168 141
-5.6202e-10 -4.72256e-10 -3.36868e-13 182 168 141
-5.62357e-10 -4.72256e-10 -3.36868e-13 182 168 141
-5.62694e-10 -4.72256e-10 -3.36868e-13 182 168 141
-5.61009e-10 -4.72593e-10 -3.36868e-13 182 168 141
-5.61346e-10 -4.72593e-10 -3.36868e-13 182 168 141
-5.61683e-10 -4.72593e-10 -3.36868e-13 182 168 141
-5.6202e-10 -4.72593e-10 -3.36868e-13 182 168 141
-5.62357e-10 -4.72593e-10 -3.36868e-13 182 168 141
-5.62694e-10 -4.72593e-10 -3.36868e-13 182 168 141
-5.65158e-10 -4.76713e-10 -3.39563e-13 183 169 142
-5.61009e-10 -4.72929e-10 -3.36868e-13 182 168 141
-5.61346e-10 -4.72929e-10 -3.36868e-13 182 168 141
-5.61683e-10 -4.72929e-10 -3.36868e-13 182 168 141
-5.6202e-10 -4.72929e-10 -3.36868e-13 182 168 141
-5.62357e-10 -4.72929e-10 -3.36868e-13 182 168 141
-5.62694e-10 -4.72929e-10 -3.36868e-13 182 168 141
-5.65723e-10 -4.7753e-10 -3.39903e-13 183 169 142
-5.61009e-10 -4.73266e-10 -3.36868e-13 183 169 142
-5.61346e-10 -4.73266e-10 -3.36868e-13 182 168 141
-5.61683e-10 -4.73266e-10 -3.36868e-13 182 168 141
-5.6202e-10 -4.73266e-10 -3.36868e-13 182 168 141
-5.62357e-10 -4.73266e-10 -3.36868e-13 182 168 141
-5.6629e-10 -4.78349e-10 -3.40243e-13 182 168 141
-5.61009e-10 -4.73603e-10 -3.36868e-13 182 168 141
-5.61346e-10 -4.73603e-10 -3.36868e-13 182 168 141
-5.61683e-10 -4.73603e-10 -3.36868e-13 182 168 141
-5.6202e-10 -4.73603e-10 -3.36868e-13 182 168 141
-5.62357e-10 -4.73603e-10 -3.36868e-13 182 168 141
-5.66858e-10 -4.79169e-10 -3.40585e-13 182 168 141
-5.61346e-10 -4.7394e-10 -3.36868e-13 182 168 141
-5.61683e-10 -4.7394e-10 -3.36868e-13 182 168 141
-5.6202e-10 -4.7394e-10 -3.36868e-13 182 168 141
-5.62357e-10 -4.7394e-10 -3.36868e-13 182 168 141
-5.67998e-10 -4.80473e-10 -3.41269e-13 181 167 140
-5.61683e-10 -4.74277e-10 -3.36868e-13 182 168 141
-5.6202e-10 -4.74277e-10 -3.36868e-13 182 168 141
-5.62357e-10 -4.74277e-10 -3.36868e-13 182 168 141
-5.69715e-10 -4.82269e-10 -3.42301e-13 181 167 140
-5.61683e-10 -4.74614e-10 -3.36868e-13 182 168 141
-5.6202e-10 -4.74614e-10 -3.36868e-13 182 168 141
-5.62357e-10 -4.74614e-10 -3.36868e-13 182 168 141
-5.61683e-10 -4.74951e-10 -3.36868e-13 181 167 140
-5.6202e-10 -4.74951e-10 -3.36868e-13 182 168 141
-5.6202e-10 -4.75288e-10 -3.36868e-13 181 167 140
-5.6202e-10 -4.75624e-10 -3.36868e-13 181 167 140
-5.76505e-10 -4.78656e-10 -3.36868e-13 182 168 141
-5.76842e-10 -4.78656e-10 -3.36868e-13 182 168 141
-5.76505e-10 -4.78993e-10 -3.36868e-13 182 168 141
-5.76842e-10 -4.78993e-10 -3.36868e-13 182 168 141
-5.77179e-10 -4.78993e-10 -3.36868e-13 182 168 141
-5.77516e-10 -4.78993e-10 -3.36868e-13 182 168 141
-5.77179e-10 -4.7933e-10 -3.36868e-13 182 168 141
-5.77516e-10 -4.7933e-10 -3.36868e-13 182 168 141
-5.77853e-10 -4.7933e-10 -3.36868e-13 182 168 141
-5.78189e-10 -4.7933e-10 -3.36868e-13 182 168 141
-4.31341e-08 -3.71926e-08 -2.61202e-11 180 166 140
-5.77516e-10 -4.79667e-10 -3.36868e-13 182 168 141
-5.77853e-10 -4.79667e-10 -3.36868e-13 182 168 141
-5.78189e-10 -4.79667e-10 -3.36868e-13 182 168 141
-5.78526e-10 -4.79667e-10 -3.36868e-13 182 168 141
-5.60743e-08 -4.83844e-08 -3.39563e-11 180 166 140
-5.77853e-10 -4.80004e-10 -3.36868e-13 182 168 141
-5.78189e-10 -4.80004e-10 -3.36868e-13 182 168 141
-5.78526e-10 -4.80004e-10 -3.36868e-13 182 168 141
-5.78863e-10 -4.80004e-10 -3.36868e-13 182 168 141
-3.74055e-08 -3.22789e-08 -2.26375e-11 180 166 140
-5.77853e-10 -4.80341e-10 -3.36868e-13 182 168 141
-5.78189e-10 -4.80341e-10 -3.36868e-13 182 168 141
-5.78526e-10 -4.80341e-10 -3.36868e-13 182 168 141
-5.78863e-10 -4.80341e-10 -3.36868e-13 182 168 141
-5.792e-10 -4.80341e-10 -3.36868e-13 182 168 141
-5.79537e-10 -4.80341e-10 -3.36868e-13 182 168 141
-4.31602e-08 -3.7271e-08 -2.61202e-11 181 167 140
-5.78189e-10 -4.80677e-10 -3.36868e-13 182 168 141
-5.78526e-10 -4.80677e-10 -3.36868e-13 182 168 141
-5.78863e-10 -4.80677e-10 -3.36868e-13 182 168 141
-5.792e-10 -4.80677e-10 -3.36868e-13 182 168 141
-5.79537e-10 -4.80677e-10 -3.36868e-13 182 168 141
-5.79874e-10 -4.80677e-10 -3.36868e-13 182 168 141
-4.00773e-08 -3.4633e-08 -2.42545e-11 180 166 139
-5.792e-10 -4.81014e-10 -3.36868e-13 182 168 141
-5.79537e-10 -4.81014e-10 -3.36868e-13 182 168 141
-5.79874e-10 -4.81014e-10 -3.36868e-13 182 168 141
-4.67569e-08 -4.04335e-08 -2.82969e-11 180 166 139
-4.01016e-08 -3.46573e-08 -2.42545e-11 180 166 139
-5.792e-10 -4.81351e-10 -3.36868e-13 182 168 141
-5.79537e-10 -4.81351e-10 -3.36868e-13 182 168 141
-5.79874e-10 -4.81351e-10 -3.36868e-13 182 168 141
-5.80211e-10 -4.81351e-10 -3.36868e-13 182 168 141
-5.61083e-08 -4.85542e-08 -3.39563e-11 180 166 139
-6.23803e-08 -5.39491e-08 -3.77292e-11 180 166 139
-5.84078e-10 -4.86028e-10 -3.39903e-13 182 168 141
-5.792e-10 -4.81688e-10 -3.36868e-13 182 168 141
-5.79537e-10 -4.81688e-10 -3.36868e-13 182 168 141
-5.79874e-10 -4.81688e-10 -3.36868e-13 182 168 141
-5.80211e-10 -4.81688e-10 -3.36868e-13 182 168 141
-5.80547e-10 -4.81688e-10 -3.36868e-13 182 168 141
-6.23425e-08 -5.39868e-08 -3.77292e-11 179 165 138
-4.68135e-08 -4.04901e-08 -2.82969e-11 179 165 138
-5.79537e-10 -4.82025e-10 -3.36868e-13 182 168 141
-5.79874e-10 -4.82025e-10 -3.36868e-13 182 168 141
-5.80211e-10 -4.82025e-10 -3.36868e-13 182 168 141
-5.80547e-10 -4.82025e-10 -3.36868e-13 182 168 141
-5.80884e-10 -4.82025e-10 -3.36868e-13 182 168 141
-6.23425e-08 -5.40245e-08 -3.77292e-11 179 165 138
-5.10693e-08 -4.42019e-08 -3.08693e-11 179 165 138
-4.01501e-08 -3.473e-08 -2.42545e-11 179 165 138
-5.83834e-10 -4.86221e-10 -3.39563e-13 182 168 141
-5.79537e-10 -4.82362e-10 -3.36868e-13 182 168 141
-5.79874e-10 -4.82362e-10 -3.36868e-13 182 168 141
-5.80211e-10 -4.82362e-10 -3.36868e-13 182 168 141
-5.80547e-10 -4.82362e-10 -3.36868e-13 182 168 141
-5.80884e-10 -4.82362e-10 -3.36868e-13 182 168 141
-5.61762e-08 -4.8656e-08 -3.39563e-11 179 165 138
-4.68418e-08 -4.05467e-08 -2.82969e-11 179 165 138
-5.79874e-10 -4.82699e-10 -3.36868e-13 182 168 141
-5.80211e-10 -4.82699e-10 -3.36868e-13 182 168 141
-5.80547e-10 -4.82699e-10 -3.36868e-13 182 168 141
-5.80884e-10 -4.82699e-10 -3.36868e-13 182 168 141
-5.81221e-10 -4.82699e-10 -3.36868e-13 182 168 141
-6.24557e-08 -5.41e-08 -3.77292e-11 179 165 138
-4.68701e-08 -4.0575e-08 -2.82969e-11 179 165 138
-5.84173e-10 -4.869e-10 -3.39563e-13 182 168 141
-5.79874e-10 -4.83036e-10 -3.36868e-13 182 168 141
-5.80211e-10 -4.83036e-10 -3.36868e-13 182 168 141
-5.80547e-10 -4.83036e-10 -3.36868e-13 182 168 141
-5.80884e-10 -4.83036e-10 -3.36868e-13 182 168 141
-5.81221e-10 -4.83036e-10 -3.36868e-13 182 168 141
-5.81558e-10 -4.83036e-10 -3.36868e-13 182 168 141
-5.62441e-08 -4.87239e-08 -3.39563e-11 179 165 138
-5.80211e-10 -4.83372e-10 -3.36868e-13 182 168 141
-5.80547e-10 -4.83372e-10 -3.36868e-13 182 168 141
-5.80884e-10 -4.83372e-10 -3.36868e-13 182 168 141
-5.81221e-10 -4.83372e-10 -3.36868e-13 182 168 141
-5.81558e-10 -4.83372e-10 -3.36868e-13 182 168 141
-7.01354e-08 -6.09474e-08 -4.24454e-11 179 165 138
-5.62441e-08 -4.87579e-08 -3.39563e-11 178 164 137
-5.80211e-10 -4.83709e-10 -3.36868e-13 182 168 141
-5.80547e-10 -4.83709e-10 -3.36868e-13 182 168 141
-5.80884e-10 -4.83709e-10 -3.36868e-13 182 168 141
-5.81221e-10 -4.83709e-10 -3.36868e-13 182 168 141
-5.81558e-10 -4.83709e-10 -3.36868e-13 182 168 141
-5.81895e-10 -4.83709e-10 -3.36868e-13 182 168 141
-6.23425e-08 -5.42132e-08 -3.77292e-11 179 165 138
-5.62441e-08 -4.87918e-08 -3.39563e-11 178 164 137
-6.25312e-08 -5.42132e-08 -3.77292e-11 178 164 137
-3.52162e-08 -3.04949e-08 -2.12227e-11 178 164 137
-5.80547e-10 -4.84046e-10 -3.36868e-13 182 168 141
-5.80884e-10 -4.84046e-10 -3.36868e-13 182 168 141
-5.81221e-10 -4.84046e-10 -3.36868e-13 182 168 141
-5.81558e-10 -4.84046e-10 -3.36868e-13 182 168 141
-5.81895e-10 -4.84046e-10 -3.36868e-13 182 168 141
-5.82232e-10 -4.84046e-10 -3.36868e-13 182 168 141
-6.24935e-08 -5.42509e-08 -3.77292e-11 179 165 138
-5.62781e-08 -4.88258e-08 -3.39563e-11 178 164 137
-3.13033e-08 -2.71254e-08 -1.88646e-11 178 164 137
-5.80547e-10 -4.84383e-10 -3.36868e-13 183 169 142
-5.80884e-10 -4.84383e-10 -3.36868e-13 182 168 141
-5.81221e-10 -4.84383e-10 -3.36868e-13 182 168 141
-5.81558e-10 -4.84383e-10 -3.36868e-13 182 168 141
-5.81895e-10 -4.84383e-10 -3.36868e-13 182 168 141
-5.82232e-10 -4.84383e-10 -3.36868e-13 182 168 141
-6.24935e-08 -5.42886e-08 -3.77292e-11 179 165 138
-5.62781e-08 -4.88598e-08 -3.39563e-11 179 165 138
-5.6312e-08 -4.88598e-08 -3.39563e-11 178 164 137
-2.96558e-08 -2.57157e-08 -1.78717e-11 178 164 137
-5.80547e-10 -4.8472e-10 -3.36868e-13 183 169 142
-5.80884e-10 -4.8472e-10 -3.36868e-13 183 169 142
-5.81558e-10 -4.8472e-10 -3.36868e-13 182 168 141
-5.81895e-10 -4.8472e-10 -3.36868e-13 182 168 141
-5.82232e-10 -4.8472e-10 -3.36868e-13 182 168 141
-5.82569e-10 -4.8472e-10 -3.36868e-13 182 168 141
-6.24935e-08 -5.43263e-08 -3.77292e-11 179 165 138
-6.25312e-08 -5.43263e-08 -3.77292e-11 179 165 138
-6.25689e-08 -5.43263e-08 -3.77292e-11 179 165 138
-2.96558e-08 -2.57335e-08 -1.78717e-11 179 165 138
-5.80547e-10 -4.85057e-10 -3.36868e-13 182 168 141
-5.81895e-10 -4.85057e-10 -3.36868e-13 182 168 141
-5.82232e-10 -4.85057e-10 -3.36868e-13 182 168 141
-5.82569e-10 -4.85057e-10 -3.36868e-13 182 168 141
-7.039e-08 -6.11596e-08 -4.24454e-11 179 165 138
-2.8173e-08 -2.44638e-08 -1.69781e-11 179 165 138
-1.87933e-08 -1.63092e-08 -1.13188e-11 179 165 138
-5.81895e-10 -4.85394e-10 -3.36868e-13 182 168 141
-5.82232e-10 -4.85394e-10 -3.36868e-13 182 168 141
-5.82569e-10 -4.85394e-10 -3.36868e-13 182 168 141
-5.82906e-10 -4.85394e-10 -3.36868e-13 182 168 141
-2.8173e-08 -2.44808e-08 -1.69781e-11 179 165 138
-1.81871e-08 -1.57941e-08 -1.09536e-11 179 165 138
-5.82232e-10 -4.8573e-10 -3.36868e-13 182 168 141
-5.82569e-10 -4.8573e-10 -3.36868e-13 182 168 141
-5.82906e-10 -4.8573e-10 -3.36868e-13 182 168 141
-3.13033e-08 -2.72198e-08 -1.88646e-11 179 165 138
-5.82232e-10 -4.86067e-10 -3.36868e-13 181 167 140
-5.82569e-10 -4.86067e-10 -3.36868e-13 182 168 141
-5.82906e-10 -4.86067e-10 -3.36868e-13 182 168 141
-5.83242e-10 -4.86067e-10 -3.36868e-13 182 168 141
-4.33431e-08 -3.7715e-08 -2.61202e-11 180 166 139
-5.82232e-10 -4.86404e-10 -3.36868e-13 181 167 140
-5.82569e-10 -4.86404e-10 -3.36868e-13 181 167 140
-5.82906e-10 -4.86404e-10 -3.36868e-13 181 167 140
-5.83242e-10 -4.86404e-10 -3.36868e-13 181 167 140
-5.12236e-08 -4.46032e-08 -3.08693e-11 180 166 139
-5.82569e-10 -4.86741e-10 -3.36868e-13 181 167 140
-5.82906e-10 -4.86741e-10 -3.36868e-13 181 167 140
-5.83242e-10 -4.86741e-10 -3.36868e-13 181 167 140
-5.83579e-10 -4.86741e-10 -3.36868e-13 181 167 140
-6.26066e-08 -5.45527e-08 -3.77292e-11 180 166 139
-5.82569e-10 -4.87078e-10 -3.36868e-13 182 168 141
-5.82906e-10 -4.87078e-10 -3.36868e-13 182 168 141
-5.83242e-10 -4.87078e-10 -3.36868e-13 182 168 141
-5.83579e-10 -4.87078e-10 -3.36868e-13 181 167 140
-5.82906e-10 -4.87415e-10 -3.36868e-13 182 168 141
-5.83242e-10 -4.87415e-10 -3.36868e-13 182 168 141
-5.83579e-10 -4.87415e-10 -3.36868e-13 182 168 141
-5.83242e-10 -4.87752e-10 -3.36868e-13 182 168 141
-5.83579e-10 -4.87752e-10 -3.36868e-13 182 168 141
-5.83916e-10 -4.87752e-10 -3.36868e-13 182 168 141
-5.83242e-10 -4.88089e-10 -3.36868e-13 182 168 141
-5.83579e-10 -4.88089e-10 -3.36868e-13 182 168 141
-5.83916e-10 -4.88089e-10 -3.36868e-13 182 168 141
-5.83242e-10 -4.88425e-10 -3.36868e-13 182 168 141
-5.83579e-10 -4.88425e-10 -3.36868e-13 182 168 141
-5.83916e-10 -4.88425e-10 -3.36868e-13 182 168 141
-5.8998e-10 -5.00216e-10 -3.36868e-13 180 166 139
-5.8998e-10 -5.00553e-10 -3.36868e-13 181 167 140
-5.90317e-10 -5.00553e-10 -3.36868e-13 180 166 139
-5.8998e-10 -5.00889e-10 -3.36868e-13 181 167 140
-5.90317e-10 -5.00889e-10 -3.36868e-13 181 167 140
-5.90654e-10 -5.00889e-10 -3.36868e-13 181 167 140
-5.8998e-10 -5.01226e-10 -3.36868e-13 182 168 141
-5.90317e-10 -5.01226e-10 -3.36868e-13 181 167 140
-5.90654e-10 -5.01226e-10 -3.36868e-13 181 167 140
-5.8998e-10 -5.01563e-10 -3.36868e-13 182 168 141
-5.90317e-10 -5.01563e-10 -3.36868e-13 182 168 141
-5.90654e-10 -5.01563e-10 -3.36868e-13 182 168 141
-5.9099e-10 -5.01563e-10 -3.36868e-13 182 168 141
-5.8998e-10 -5.019e-10 -3.36868e-13 183 169 142
-5.90317e-10 -5.019e-10 -3.36868e-13 182 168 142
-5.90654e-10 -5.019e-10 -3.36868e-13 182 168 142
-5.9099e-10 -5.019e-10 -3.36868e-13 182 168 141
-5.91327e-10 -5.019e-10 -3.36868e-13 182 168 141
-5.90654e-10 -5.02237e-10 -3.36868e-13 183 169 143
-5.9099e-10 -5.02237e-10 -3.36868e-13 183 169 142
-5.91327e-10 -5.02237e-10 -3.36868e-13 182 168 142
-5.91664e-10 -5.02237e-10 -3.36868e-13 182 168 142
-5.9099e-10 -5.02574e-10 -3.36868e-13 183 169 143
-5.91327e-10 -5.02574e-10 -3.36868e-13 183 169 143
-5.91664e-10 -5.02574e-10 -3.36868e-13 183 169 143
-5.91327e-10 -5.02911e-10 -3.36868e-13 183 169 143
-5.91664e-10 -5.02911e-10 -3.36868e-13 183 169 143
-5.92001e-10 -5.02911e-10 -3.36868e-13 183 169 143
-5.91327e-10 -5.03248e-10 -3.36868e-13 184 170 144
-5.91664e-10 -5.03248e-10 -3.36868e-13 184 170 144
-5.92001e-10 -5.03248e-10 -3.36868e-13 184 170 144
-5.92338e-10 -5.03248e-10 -3.36868e-13 183 169 143
-5.91327e-10 -5.03584e-10 -3.36868e-13 184 170 144
-5.91664e-10 -5.03584e-10 -3.36868e-13 184 170 144
-5.92001e-10 -5.03584e-10 -3.36868e-13 184 170 144
-5.92338e-10 -5.03584e-10 -3.36868e-13 184 170 144
-5.92675e-10 -5.03584e-10 -3.36868e-13 184 170 144
-5.91327e-10 -5.03921e-10 -3.36868e-13 185 171 145
-5.91664e-10 -5.03921e-10 -3.36868e-13 185 171 145
-5.92001e-10 -5.03921e-10 -3.36868e-13 185 171 145
-5.92338e-10 -5.03921e-10 -3.36868e-13 184 170 144
-5.92675e-10 -5.03921e-10 -3.36868e-13 184 170 144
-5.93012e-10 -5.03921e-10 -3.36868e-13 184 170 144
-5.91664e-10 -5.04258e-10 -3.36868e-13 185 171 145
-5.92001e-10 -5.04258e-10 -3.36868e-13 185 171 145
-5.92338e-10 -5.04258e-10 -3.36868e-13 185 171 145
-5.92675e-10 -5.04258e-10 -3.36868e-13 185 171 145
-5.93012e-10 -5.04258e-10 -3.36868e-13 185 171 145
-5.93348e-10 -5.04258e-10 -3.36868e-13 184 170 144
-5.91664e-10 -5.04595e-10 -3.36868e-13 185 171 145
-5.92001e-10 -5.04595e-10 -3.36868e-13 185 171 145
-5.92338e-10 -5.04595e-10 -3.36868e-13 185 171 145
-5.92675e-10 -5.04595e-10 -3.36868e-13 185 171 145
-5.93012e-10 -5.04595e-10 -3.36868e-13 185 171 145
-5.93348e-10 -5.04595e-10 -3.36868e-13 185 171 145
-5.93685e-10 -5.04595e-10 -3.36868e-13 185 171 145
-5.92001e-10 -5.04932e-10 -3.36868e-13 185 171 145
-5.92338e-10 -5.04932e-10 -3.36868e-13 185 171 145
-5.92675e-10 -5.04932e-10 -3.36868e-13 185 171 145
-5.93012e-10 -5.04932e-10 -3.36868e-13 185 171 145
-5.93348e-10 -5.04932e-10 -3.36868e-13 185 171 145
-5.93685e-10 -5.04932e-10 -3.36868e-13 185 171 145
-5.94022e-10 -5.04932e-10 -3.36868e-13 185 171 145
-5.92338e-10 -5.05269e-10 -3.36868e-13 185 171 145
-5.92675e-10 -5.05269e-10 -3.36868e-13 185 171 145
-5.93012e-10 -5.05269e-10 -3.36868e-13 185 171 145
-5.93348e-10 -5.05269e-10 -3.36868e-13 185 171 145
-5.93685e-10 -5.05269e-10 -3.36868e-13 185 171 145
-5.94022e-10 -5.05269e-10 -3.36868e-13 185 171 145
-5.92675e-10 -5.05606e-10 -3.36868e-13 185 171 145
-5.93012e-10 -5.05606e-10 -3.36868e-13 185 171 145
-5.93348e-10 -5.05606e-10 -3.36868e-13 185 171 145
-5.93685e-10 -5.05606e-10 -3.36868e-13 185 171 145
-5.94022e-10 -5.05606e-10 -3.36868e-13 185 171 145
-5.94359e-10 -5.05606e-10 -3.36868e-13 185 171 145
-5.93012e-10 -5.05943e-10 -3.36868e-13 185 171 145
-5.93348e-10 -5.05943e-10 -3.36868e-13 185 171 145
-5.93685e-10 -5.05943e-10 -3.36868e-13 185 171 145
-5.94022e-10 -5.05943e-10 -3.36868e-13 185 171 145
-5.94359e-10 -5.05943e-10 -3.36868e-13 185 171 145
-5.97416e-10 -5.1033e-10 -3.39563e-13 185 171 145
-5.93012e-10 -5.06279e-10 -3.36868e-13 185 171 145
-5.93348e-10 -5.06279e-10 -3.36868e-13 185 171 145
-5.93685e-10 -5.06279e-10 -3.36868e-13 185 171 145
-5.94022e-10 -5.06279e-10 -3.36868e-13 185 171 145
-5.94359e-10 -5.06279e-10 -3.36868e-13 185 171 145
-6.01022e-10 -5.13752e-10 -3.41613e-13 185 171 145
-5.93012e-10 -5.06616e-10 -3.36868e-13 185 171 145
-5.93348e-10 -5.06616e-10 -3.36868e-13 185 171 145
-5.93685e-10 -5.06616e-10 -3.36868e-13 185 171 145
-5.94022e-10 -5.06616e-10 -3.36868e-13 185 171 145
-5.94359e-10 -5.06616e-10 -3.36868e-13 185 171 145
-5.94696e-10 -5.06616e-10 -3.36868e-13 185 171 145
-6.04672e-10 -5.17215e-10 -3.43687e-13 185 171 145
-5.97756e-10 -5.11009e-10 -3.39563e-13 185 171 145
-5.93348e-10 -5.06953e-10 -3.36868e-13 185 171 145
-5.93685e-10 -5.06953e-10 -3.36868e-13 185 171 145
-5.94022e-10 -5.06953e-10 -3.36868e-13 185 171 145
-5.94359e-10 -5.06953e-10 -3.36868e-13 185 171 145
-5.94696e-10 -5.06953e-10 -3.36868e-13 185 171 145
-5.95033e-10 -5.06953e-10 -3.36868e-13 185 171 145
-5.98354e-10 -5.1186e-10 -3.39903e-13 185 171 145
-5.93348e-10 -5.0729e-10 -3.36868e-13 185 171 145
-5.93685e-10 -5.0729e-10 -3.36868e-13 185 171 145
-5.94022e-10 -5.0729e-10 -3.36868e-13 185 171 145
-5.94359e-10 -5.0729e-10 -3.36868e-13 186 172 146
-5.94696e-10 -5.0729e-10 -3.36868e-13 185 171 145
-5.95033e-10 -5.0729e-10 -3.36868e-13 185 171 145
-5.98354e-10 -5.122e-10 -3.39903e-13 185 171 145
-5.93348e-10 -5.07627e-10 -3.36868e-13 185 171 145
-5.93685e-10 -5.07627e-10 -3.36868e-13 185 171 145
-5.94022e-10 -5.07627e-10 -3.36868e-13 185 171 145
-5.94359e-10 -5.07627e-10 -3.36868e-13 186 172 146
-5.94696e-10 -5.07627e-10 -3.36868e-13 186 172 146
-5.95033e-10 -5.07627e-10 -3.36868e-13 186 172 146
-5.9537e-10 -5.07627e-10 -3.36868e-13 186 172 146
-5.97756e-10 -5.12027e-10 -3.39563e-13 185 171 145
-5.93348e-10 -5.07964e-10 -3.36868e-13 185 171 145
-5.93685e-10 -5.07964e-10 -3.36868e-13 185 171 145
-5.94022e-10 -5.07964e-10 -3.36868e-13 185 171 145
-5.94359e-10 -5.07964e-10 -3.36868e-13 185 171 145
-5.94696e-10 -5.07964e-10 -3.36868e-13 186 172 146
-5.95033e-10 -5.07964e-10 -3.36868e-13 186 172 146
-5.9537e-10 -5.07964e-10 -3.36868e-13 186 172 146
-5.97756e-10 -5.12367e-10 -3.39563e-13 185 171 145
-5.93348e-10 -5.08301e-10 -3.36868e-13 185 171 145
-5.93685e-10 -5.08301e-10 -3.36868e-13 185 171 145
-5.94022e-10 -5.08301e-10 -3.36868e-13 185 171 145
-5.94359e-10 -5.08301e-10 -3.36868e-13 185 171 145
-5.94696e-10 -5.08301e-10 -3.36868e-13 185 171 145
-5.95033e-10 -5.08301e-10 -3.36868e-13 185 171 145
-5.9537e-10 -5.08301e-10 -3.36868e-13 186 172 146
-5.95707e-10 -5.08301e-10 -3.36868e-13 186 172 146
-6.03451e-10 -5.17885e-10 -3.42993e-13 185 171 145
-5.97756e-10 -5.12707e-10 -3.39563e-13 185 171 145
-5.93348e-10 -5.08637e-10 -3.36868e-13 185 171 145
-5.93685e-10 -5.08637e-10 -3.36868e-13 185 171 145
-5.94022e-10 -5.08637e-10 -3.36868e-13 185 171 145
-5.94359e-10 -5.08637e-10 -3.36868e-13 185 171 145
-5.94696e-10 -5.08637e-10 -3.36868e-13 185 171 145
-5.95033e-10 -5.08637e-10 -3.36868e-13 185 171 145
-5.9537e-10 -5.08637e-10 -3.36868e-13 185 171 145
-5.95707e-10 -5.08637e-10 -3.36868e-13 185 171 145
-6.04672e-10 -5.19277e-10 -3.43687e-13 185 171 145
-5.98354e-10 -5.1356e-10 -3.39903e-13 185 171 145
-5.93348e-10 -5.08974e-10 -3.36868e-13 185 171 145
-5.93685e-10 -5.08974e-10 -3.36868e-13 185 171 145
-5.94022e-10 -5.08974e-10 -3.36868e-13 185 171 145
-5.94359e-10 -5.08974e-10 -3.36868e-13 185 171 145
-5.94696e-10 -5.08974e-10 -3.36868e-13 185 171 145
-5.95033e-10 -5.08974e-10 -3.36868e-13 185 171 145
-5.9537e-10 -5.08974e-10 -3.36868e-13 185 171 145
-5.95707e-10 -5.08974e-10 -3.36868e-13 185 171 145
-5.96043e-10 -5.08974e-10 -3.36868e-13 185 171 145
-6.05899e-10 -5.20675e-10 -3.44384e-13 185 171 145
-5.98954e-10 -5.14415e-10 -3.40243e-13 185 171 145
-5.93348e-10 -5.09311e-10 -3.36868e-13 185 171 145
-5.93685e-10 -5.09311e-10 -3.36868e-13 185 171 145
-5.94022e-10 -5.09311e-10 -3.36868e-13 185 171 145
-5.94359e-10 -5.09311e-10 -3.36868e-13 185 171 145
-5.94696e-10 -5.09311e-10 -3.36868e-13 185 171 145
-5.95033e-10 -5.09311e-10 -3.36868e-13 185 171 145
-5.9537e-10 -5.09311e-10 -3.36868e-13 185 171 145
-5.95707e-10 -5.09311e-10 -3.36868e-13 185 171 145
-5.96043e-10 -5.09311e-10 -3.36868e-13 185 171 145
-5.9638e-10 -5.09311e-10 -3.36868e-13 185 171 145
-5.99554e-10 -5.15271e-10 -3.40585e-13 185 171 145
-5.93348e-10 -5.09648e-10 -3.36868e-13 185 171 145
-5.93685e-10 -5.09648e-10 -3.36868e-13 185 171 145
-5.94022e-10 -5.09648e-10 -3.36868e-13 185 171 145
-5.94696e-10 -5.09648e-10 -3.36868e-13 185 171 145
-5.95033e-10 -5.09648e-10 -3.36868e-13 185 171 145
-5.9537e-10 -5.09648e-10 -3.36868e-13 185 171 145
-5.95707e-10 -5.09648e-10 -3.36868e-13 185 171 145
-5.96043e-10 -5.09648e-10 -3.36868e-13 185 171 145
-5.9638e-10 -5.09648e-10 -3.36868e-13 185 171 145
-6.00156e-10 -5.16129e-10 -3.40927e-13 185 171 145
-5.93348e-10 -5.09985e-10 -3.36868e-13 185 171 145
-5.93685e-10 -5.09985e-10 -3.36868e-13 185 171 145
-5.94022e-10 -5.09985e-10 -3.36868e-13 185 171 145
-5.95033e-10 -5.09985e-10 -3.36868e-13 185 171 145
-5.9537e-10 -5.09985e-10 -3.36868e-13 185 171 145
-5.95707e-10 -5.09985e-10 -3.36868e-13 185 171 145
-5.96043e-10 -5.09985e-10 -3.36868e-13 185 171 145
-5.9638e-10 -5.09985e-10 -3.36868e-13 185 171 145
-5.96717e-10 -5.09985e-10 -3.36868e-13 185 171 145
-6.00156e-10 -5.1647e-10 -3.40927e-13 185 171 145
-5.93348e-10 -5.10322e-10 -3.36868e-13 185 171 145
-5.93685e-10 -5.10322e-10 -3.36868e-13 185 171 145
-5.9537e-10 -5.10322e-10 -3.36868e-13 185 171 145
-5.95707e-10 -5.10322e-10 -3.36868e-13 185 171 145
-5.96043e-10 -5.10322e-10 -3.36868e-13 185 171 145
-5.9638e-10 -5.10322e-10 -3.36868e-13 185 171 145
-5.96717e-10 -5.10322e-10 -3.36868e-13 185 171 145
-5.97054e-10 -5.10322e-10 -3.36868e-13 185 171 145
-6.00759e-10 -5.17331e-10 -3.41269e-13 185 171 145
-5.93348e-10 -5.10659e-10 -3.36868e-13 185 171 145
-5.9537e-10 -5.10659e-10 -3.36868e-13 185 171 145
-5.95707e-10 -5.10659e-10 -3.36868e-13 185 171 145
-5.96043e-10 -5.10659e-10 -3.36868e-13 185 171 145
-5.9638e-10 -5.10659e-10 -3.36868e-13 185 171 145
-5.96717e-10 -5.10659e-10 -3.36868e-13 185 171 145
-5.97054e-10 -5.10659e-10 -3.36868e-13 185 171 145
-6.00156e-10 -5.17152e-10 -3.40927e-13 185 171 145
-5.93348e-10 -5.10996e-10 -3.36868e-13 185 171 145
-5.95707e-10 -5.10996e-10 -3.36868e-13 185 171 145
-5.96043e-10 -5.10996e-10 -3.36868e-13 185 171 145
-5.9638e-10 -5.10996e-10 -3.36868e-13 185 171 145
-5.96717e-10 -5.10996e-10 -3.36868e-13 185 171 145
-5.97054e-10 -5.10996e-10 -3.36868e-13 185 171 145
-5.97391e-10 -5.10996e-10 -3.36868e-13 185 171 145
-6.00156e-10 -5.17493e-10 -3.40927e-13 185 171 145
-5.95707e-10 -5.11332e-10 -3.36868e-13 185 171 145
-5.96043e-10 -5.11332e-10 -3.36868e-13 185 171 145
-5.9638e-10 -5.11332e-10 -3.36868e-13 185 171 145
-5.96717e-10 -5.11332e-10 -3.36868e-13 185 171 145
-5.97054e-10 -5.11332e-10 -3.36868e-13 185 171 145
-5.97391e-10 -5.11332e-10 -3.36868e-13 185 171 145
-5.97728e-10 -5.11332e-10 -3.36868e-13 185 171 145
-5.96043e-10 -5.11669e-10 -3.36868e-13 185 171 145
-5.9638e-10 -5.11669e-10 -3.36868e-13 185 171 145
-5.96717e-10 -5.11669e-10 -3.36868e-13 185 171 145
-5.97054e-10 -5.11669e-10 -3.36868e-13 185 171 145
-5.97391e-10 -5.11669e-10 -3.36868e-13 185 171 145
-5.97728e-10 -5.11669e-10 -3.36868e-13 185 171 145
-6.00472e-10 -5.16102e-10 -3.39563e-13 185 171 145
-5.96043e-10 -5.12006e-10 -3.36868e-13 185 171 145
-5.9638e-10 -5.12006e-10 -3.36868e-13 185 171 145
-5.96717e-10 -5.12006e-10 -3.36868e-13 185 171 145
-5.97054e-10 -5.12006e-10 -3.36868e-13 185 171 145
-5.97391e-10 -5.12006e-10 -3.36868e-13 185 171 145
-5.97728e-10 -5.12006e-10 -3.36868e-13 185 171 145
-5.98065e-10 -5.12006e-10 -3.36868e-13 185 171 145
-5.9638e-10 -5.12343e-10 -3.36868e-13 185 171 145
-5.96717e-10 -5.12343e-10 -3.36868e-13 185 171 145
-5.97054e-10 -5.12343e-10 -3.36868e-13 185 171 145
-5.97391e-10 -5.12343e-10 -3.36868e-13 185 171 145
-5.97728e-10 -5.12343e-10 -3.36868e-13 185 171 145
-5.98065e-10 -5.12343e-10 -3.36868e-13 185 171 145
-5.9638e-10 -5.1268e-10 -3.36868e-13 185 171 145
-5.96717e-10 -5.1268e-10 -3.36868e-13 185 171 145
-5.97054e-10 -5.1268e-10 -3.36868e-13 185 171 145
-5.97391e-10 -5.1268e-10 -3.36868e-13 185 171 145
-5.97728e-10 -5.1268e-10 -3.36868e-13 185 171 145
-5.98065e-10 -5.1268e-10 -3.36868e-13 185 171 145
-5.98401e-10 -5.1268e-10 -3.36868e-13 185 171 145
-5.96717e-10 -5.13017e-10 -3.36868e-13 185 171 145
-5.97054e-10 -5.13017e-10 -3.36868e-13 185 171 145
-5.97391e-10 -5.13017e-10 -3.36868e-13 185 171 145
-5.97728e-10 -5.13017e-10 -3.36868e-13 185 171 145
-5.98065e-10 -5.13017e-10 -3.36868e-13 185 171 145
-5.98401e-10 -5.13017e-10 -3.36868e-13 185 171 145
-5.96717e-10 -5.13354e-10 -3.36868e-13 185 171 145
-5.97054e-10 -5.13354e-10 -3.36868e-13 185 171 145
-5.97391e-10 -5.13354e-10 -3.36868e-13 185 171 145
-5.97728e-10 -5.13354e-10 -3.36868e-13 185 171 145
-5.98065e-10 -5.13354e-10 -3.36868e-13 185 171 145
-5.98401e-10 -5.13354e-10 -3.36868e-13 185 171 145
-5.98738e-10 -5.13354e-10 -3.36868e-13 185 171 145
-5.96717e-10 -5.1369e-10 -3.36868e-13 184 170 144
-5.97054e-10 -5.1369e-10 -3.36868e-13 184 170 144
-5.97391e-10 -5.1369e-10 -3.36868e-13 184 170 144
-5.97728e-10 -5.1369e-10 -3.36868e-13 185 171 145
-5.98065e-10 -5.1369e-10 -3.36868e-13 185 171 145
-5.98401e-10 -5.1369e-10 -3.36868e-13 185 171 145
-5.98738e-10 -5.1369e-10 -3.36868e-13 185 171 145
-5.99075e-10 -5.1369e-10 -3.36868e-13 185 171 145
-5.96717e-10 -5.14027e-10 -3.36868e-13 184 170 144
-5.97054e-10 -5.14027e-10 -3.36868e-13 184 170 144
-5.97391e-10 -5.14027e-10 -3.36868e-13 184 170 144
-5.97728e-10 -5.14027e-10 -3.36868e-13 184 170 144
-5.98065e-10 -5.14027e-10 -3.36868e-13 184 170 144
-5.98401e-10 -5.14027e-10 -3.36868e-13 184 170 144
-5.98738e-10 -5.14027e-10 -3.36868e-13 185 171 145
-5.99075e-10 -5.14027e-10 -3.36868e-13 185 171 145
-5.96717e-10 -5.14364e-10 -3.36868e-13 184 170 144
-5.97054e-10 -5.14364e-10 -3.36868e-13 184 170 144
-5.97391e-10 -5.14364e-10 -3.36868e-13 184 170 144
-5.97728e-10 -5.14364e-10 -3.36868e-13 184 170 144
-5.98065e-10 -5.14364e-10 -3.36868e-13 184 170 144
-5.98401e-10 -5.14364e-10 -3.36868e-13 184 170 144
-5.98738e-10 -5.14364e-10 -3.36868e-13 184 170 144
-5.99075e-10 -5.14364e-10 -3.36868e-13 184 170 144
-5.99412e-10 -5.14364e-10 -3.36868e-13 185 171 145
-5.97728e-10 -5.14701e-10 -3.36868e-13 184 170 144
-5.98065e-10 -5.14701e-10 -3.36868e-13 184 170 144
-5.98401e-10 -5.14701e-10 -3.36868e-13 184 170 144
-5.98738e-10 -5.14701e-10 -3.36868e-13 184 170 144
-5.99075e-10 -5.14701e-10 -3.36868e-13 184 170 144
-5.99412e-10 -5.14701e-10 -3.36868e-13 184 170 144
-5.99749e-10 -5.14701e-10 -3.36868e-13 184 170 144
-6.02773e-10 -5.19678e-10 -3.39903e-13 185 171 144
-5.97728e-10 -5.15038e-10 -3.36868e-13 184 170 144
-5.98065e-10 -5.15038e-10 -3.36868e-13 184 170 144
-5.98401e-10 -5.15038e-10 -3.36868e-13 184 170 144
-5.98738e-10 -5.15038e-10 -3.36868e-13 184 170 144
-5.99075e-10 -5.15038e-10 -3.36868e-13 184 170 144
-5.99412e-10 -5.15038e-10 -3.36868e-13 184 170 144
-5.99749e-10 -5.15038e-10 -3.36868e-13 184 170 144
-6.05196e-10 -5.22108e-10 -3.41269e-13 185 171 144
-5.97728e-10 -5.15375e-10 -3.36868e-13 185 171 144
-5.98065e-10 -5.15375e-10 -3.36868e-13 185 171 144
-5.98401e-10 -5.15375e-10 -3.36868e-13 185 171 144
-5.98738e-10 -5.15375e-10 -3.36868e-13 184 170 144
-5.99075e-10 -5.15375e-10 -3.36868e-13 184 170 144
-5.99412e-10 -5.15375e-10 -3.36868e-13 184 170 144
-5.99749e-10 -5.15375e-10 -3.36868e-13 184 170 144
-6.00086e-10 -5.15375e-10 -3.36868e-13 184 170 144
-6.08868e-10 -5.25619e-10 -3.4334e-13 184 170 143
-5.98065e-10 -5.15712e-10 -3.36868e-13 185 171 144
-5.98401e-10 -5.15712e-10 -3.36868e-13 185 171 144
-5.98738e-10 -5.15712e-10 -3.36868e-13 185 171 144
-5.99075e-10 -5.15712e-10 -3.36868e-13 185 171 144
-5.99412e-10 -5.15712e-10 -3.36868e-13 184 170 144
-5.99749e-10 -5.15712e-10 -3.36868e-13 184 170 144
-6.00086e-10 -5.15712e-10 -3.36868e-13 184 170 144
-5.98065e-10 -5.16049e-10 -3.36868e-13 184 170 143
-5.98401e-10 -5.16049e-10 -3.36868e-13 184 170 143
-5.98738e-10 -5.16049e-10 -3.36868e-13 185 171 144
-5.99075e-10 -5.16049e-10 -3.36868e-13 185 171 144
-5.99412e-10 -5.16049e-10 -3.36868e-13 185 171 144
-5.99749e-10 -5.16049e-10 -3.36868e-13 184 170 144
-6.00086e-10 -5.16049e-10 -3.36868e-13 184 170 143
-6.00423e-10 -5.16049e-10 -3.36868e-13 184 170 143
-5.98065e-10 -5.16385e-10 -3.36868e-13 184 170 143
-5.98401e-10 -5.16385e-10 -3.36868e-13 184 170 143
-5.98738e-10 -5.16385e-10 -3.36868e-13 184 170 143
-5.99075e-10 -5.16385e-10 -3.36868e-13 184 170 143
-5.99412e-10 -5.16385e-10 -3.36868e-13 184 170 143
-5.99749e-10 -5.16385e-10 -3.36868e-13 184 170 143
-6.00086e-10 -5.16385e-10 -3.36868e-13 184 170 143
-6.00423e-10 -5.16385e-10 -3.36868e-13 184 170 143
-6.0076e-10 -5.16385e-10 -3.36868e-13 184 170 143
-5.98065e-10 -5.16722e-10 -3.36868e-13 184 170 143
-5.98401e-10 -5.16722e-10 -3.36868e-13 184 170 143
-5.98738e-10 -5.16722e-10 -3.36868e-13 184 170 143
-5.99075e-10 -5.16722e-10 -3.36868e-13 184 170 143
-5.99412e-10 -5.16722e-10 -3.36868e-13 184 170 143
-5.99749e-10 -5.16722e-10 -3.36868e-13 184 170 143
-6.00086e-10 -5.16722e-10 -3.36868e-13 184 170 143
-6.00423e-10 -5.16722e-10 -3.36868e-13 184 170 143
-6.0076e-10 -5.16722e-10 -3.36868e-13 184 170 143
-5.98065e-10 -5.17059e-10 -3.36868e-13 184 170 143
-5.98401e-10 -5.17059e-10 -3.36868e-13 184 170 143
-5.98738e-10 -5.17059e-10 -3.36868e-13 184 170 143
-5.99075e-10 -5.17059e-10 -3.36868e-13 184 170 143
-5.99412e-10 -5.17059e-10 -3.36868e-13 184 170 143
-5.99749e-10 -5.17059e-10 -3.36868e-13 184 170 143
-6.00086e-10 -5.17059e-10 -3.36868e-13 184 170 143
-6.00423e-10 -5.17059e-10 -3.36868e-13 184 170 143
-6.0076e-10 -5.17059e-10 -3.36868e-13 184 170 143
-6.01096e-10 -5.17059e-10 -3.36868e-13 184 170 143
-5.98401e-10 -5.17396e-10 -3.36868e-13 184 170 143
-5.98738e-10 -5.17396e-10 -3.36868e-13 184 170 143
-5.99075e-10 -5.17396e-10 -3.36868e-13 184 170 143
-5.99412e-10 -5.17396e-10 -3.36868e-13 184 170 143
-5.99749e-10 -5.17396e-10 -3.36868e-13 183 169 142
-6.00086e-10 -5.17396e-10 -3.36868e-13 183 169 142
-6.00423e-10 -5.17396e-10 -3.36868e-13 183 169 142
-6.0076e-10 -5.17396e-10 -3.36868e-13 184 170 143
-6.01096e-10 -5.17396e-10 -3.36868e-13 184 170 143
-6.01433e-10 -5.17396e-10 -3.36868e-13 184 170 143
-5.98401e-10 -5.17733e-10 -3.36868e-13 183 169 142
-5.98738e-10 -5.17733e-10 -3.36868e-13 183 169 142
-5.99075e-10 -5.17733e-10 -3.36868e-13 183 169 142
-5.99412e-10 -5.17733e-10 -3.36868e-13 183 169 142
-5.99749e-10 -5.17733e-10 -3.36868e-13 183 169 142
-6.00086e-10 -5.17733e-10 -3.36868e-13 183 169 142
-6.00423e-10 -5.17733e-10 -3.36868e-13 183 169 142
-6.0076e-10 -5.17733e-10 -3.36868e-13 183 169 142
-6.01096e-10 -5.17733e-10 -3.36868e-13 183 169 142
-6.01433e-10 -5.17733e-10 -3.36868e-13 183 169 142
-5.98401e-10 -5.1807e-10 -3.36868e-13 183 169 142
-5.98738e-10 -5.1807e-10 -3.36868e-13 183 169 142
-5.99075e-10 -5.1807e-10 -3.36868e-13 183 169 142
-5.99412e-10 -5.1807e-10 -3.36868e-13 183 169 142
-5.99749e-10 -5.1807e-10 -3.36868e-13 183 169 142
-6.00086e-10 -5.1807e-10 -3.36868e-13 183 169 142
-6.00423e-10 -5.1807e-10 -3.36868e-13 183 169 142
-6.0076e-10 -5.1807e-10 -3.36868e-13 183 169 142
-6.01096e-10 -5.1807e-10 -3.36868e-13 183 169 142
-6.01433e-10 -5.1807e-10 -3.36868e-13 183 169 142
-6.0177e-10 -5.1807e-10 -3.36868e-13 183 169 142
-5.98401e-10 -5.18407e-10 -3.36868e-13 182 168 141
-5.98738e-10 -5.18407e-10 -3.36868e-13 182 168 141
-5.99075e-10 -5.18407e-10 -3.36868e-13 182 168 141
-5.99412e-10 -5.18407e-10 -3.36868e-13 182 168 141
-5.99749e-10 -5.18407e-10 -3.36868e-13 183 169 142
-6.00086e-10 -5.18407e-10 -3.36868e-13 183 169 142
-6.00423e-10 -5.18407e-10 -3.36868e-13 183 169 142
-6.0076e-10 -5.18407e-10 -3.36868e-13 183 169 142
-6.01096e-10 -5.18407e-10 -3.36868e-13 183 169 142
-6.01433e-10 -5.18407e-10 -3.36868e-13 183 169 142
-6.0177e-10 -5.18407e-10 -3.36868e-13 183 169 142
-5.98401e-10 -5.18743e-10 -3.36868e-13 182 168 141
-5.98738e-10 -5.18743e-10 -3.36868e-13 182 168 141
-5.99075e-10 -5.18743e-10 -3.36868e-13 182 168 141
-5.99412e-10 -5.18743e-10 -3.36868e-13 182 168 141
-5.99749e-10 -5.18743e-10 -3.36868e-13 182 168 141
-6.00086e-10 -5.18743e-10 -3.36868e-13 182 168 141
-6.00423e-10 -5.18743e-10 -3.36868e-13 182 168 141
-6.0076e-10 -5.18743e-10 -3.36868e-13 183 169 142
-6.01096e-10 -5.18743e-10 -3.36868e-13 183 169 142
-6.01433e-10 -5.18743e-10 -3.36868e-13 183 169 142
-6.0177e-10 -5.18743e-10 -3.36868e-13 183 169 142
-6.02107e-10 -5.18743e-10 -3.36868e-13 183 169 142
-5.98401e-10 -5.1908e-10 -3.36868e-13 182 168 141
-5.98738e-10 -5.1908e-10 -3.36868e-13 182 168 141
-5.99075e-10 -5.1908e-10 -3.36868e-13 182 168 141
-5.99412e-10 -5.1908e-10 -3.36868e-13 182 168 141
-5.99749e-10 -5.1908e-10 -3.36868e-13 182 168 141
-6.00086e-10 -5.1908e-10 -3.36868e-13 182 168 141
-6.00423e-10 -5.1908e-10 -3.36868e-13 182 168 141
-6.0076e-10 -5.1908e-10 -3.36868e-13 182 168 141
-6.01096e-10 -5.1908e-10 -3.36868e-13 182 168 141
-6.01433e-10 -5.1908e-10 -3.36868e-13 182 168 141
-6.0177e-10 -5.1908e-10 -3.36868e-13 183 169 142
-6.02107e-10 -5.1908e-10 -3.36868e-13 183 169 142
-5.98401e-10 -5.19417e-10 -3.36868e-13 182 168 141
-5.98738e-10 -5.19417e-10 -3.36868e-13 182 168 141
-5.99412e-10 -5.19417e-10 -3.36868e-13 182 168 141
-5.99749e-10 -5.19417e-10 -3.36868e-13 182 168 141
-6.00086e-10 -5.19417e-10 -3.36868e-13 182 168 141
-6.00423e-10 -5.19417e-10 -3.36868e-13 182 168 141
-6.0076e-10 -5.19417e-10 -3.36868e-13 182 168 141
-6.01096e-10 -5.19417e-10 -3.36868e-13 182 168 141
-6.01433e-10 -5.19417e-10 -3.36868e-13 182 168 141
-6.0177e-10 -5.19417e-10 -3.36868e-13 182 168 141
-6.02107e-10 -5.19417e-10 -3.36868e-13 182 168 141
-6.02444e-10 -5.19417e-10 -3.36868e-13 182 168 141
-5.98401e-10 -5.19754e-10 -3.36868e-13 182 168 141
-5.98738e-10 -5.19754e-10 -3.36868e-13 182 168 141
-5.99412e-10 -5.19754e-10 -3.36868e-13 181 167 140
-5.99749e-10 -5.19754e-10 -3.36868e-13 182 168 141
-6.00086e-10 -5.19754e-10 -3.36868e-13 182 168 141
-6.00423e-10 -5.19754e-10 -3.36868e-13 182 168 141
-6.0076e-10 -5.19754e-10 -3.36868e-13 182 168 141
-6.01096e-10 -5.19754e-10 -3.36868e-13 182 168 141
-6.01433e-10 -5.19754e-10 -3.36868e-13 182 168 141
-6.0177e-10 -5.19754e-10 -3.36868e-13 182 168 141
-6.02107e-10 -5.19754e-10 -3.36868e-13 182 168 141
-6.02444e-10 -5.19754e-10 -3.36868e-13 182 168 141
-6.02781e-10 -5.19754e-10 -3.36868e-13 182 168 141
-5.99412e-10 -5.20091e-10 -3.36868e-13 181 167 140
-5.99749e-10 -5.20091e-10 -3.36868e-13 181 167 140
-6.00086e-10 -5.20091e-10 -3.36868e-13 181 167 140
-6.00423e-10 -5.20091e-10 -3.36868e-13 182 168 141
-6.0076e-10 -5.20091e-10 -3.36868e-13 182 168 141
-6.01096e-10 -5.20091e-10 -3.36868e-13 182 168 141
-6.01433e-10 -5.20091e-10 -3.36868e-13 182 168 141
-6.0177e-10 -5.20091e-10 -3.36868e-13 182 168 141
-6.02107e-10 -5.20091e-10 -3.36868e-13 182 168 141
-6.02444e-10 -5.20091e-10 -3.36868e-13 182 168 141
-6.02781e-10 -5.20091e-10 -3.36868e-13 182 168 141
-5.99412e-10 -5.20428e-10 -3.36868e-13 181 167 140
-5.99749e-10 -5.20428e-10 -3.36868e-13 181 167 140
-6.00086e-10 -5.20428e-10 -3.36868e-13 181 167 140
-6.00423e-10 -5.20428e-10 -3.36868e-13 181 167 140
-6.0076e-10 -5.20428e-10 -3.36868e-13 181 167 140
-6.01096e-10 -5.20428e-10 -3.36868e-13 182 168 141
-6.01433e-10 -5.20428e-10 -3.36868e-13 182 168 141
-6.0177e-10 -5.20428e-10 -3.36868e-13 182 168 141
-6.02107e-10 -5.20428e-10 -3.36868e-13 182 168 141
-6.02444e-10 -5.20428e-10 -3.36868e-13 182 168 141
-6.02781e-10 -5.20428e-10 -3.36868e-13 182 168 141
-5.99412e-10 -5.20765e-10 -3.36868e-13 181 167 140
-5.99749e-10 -5.20765e-10 -3.36868e-13 181 167 140
-6.00423e-10 -5.20765e-10 -3.36868e-13 181 167 140
-6.0076e-10 -5.20765e-10 -3.36868e-13 181 167 140
-6.01096e-10 -5.20765e-10 -3.36868e-13 181 167 140
-6.01433e-10 -5.20765e-10 -3.36868e-13 182 168 141
-6.0177e-10 -5.20765e-10 -3.36868e-13 182 168 141
-6.02107e-10 -5.20765e-10 -3.36868e-13 182 168 141
-6.02444e-10 -5.20765e-10 -3.36868e-13 182 168 141
-6.02781e-10 -5.20765e-10 -3.36868e-13 182 168 141
-6.03118e-10 -5.20765e-10 -3.36868e-13 182 168 141
-5.99412e-10 -5.21102e-10 -3.36868e-13 181 167 140
-5.99749e-10 -5.21102e-10 -3.36868e-13 181 167 140
-6.00423e-10 -5.21102e-10 -3.36868e-13 181 167 140
-6.0076e-10 -5.21102e-10 -3.36868e-13 181 167 140
-6.01096e-10 -5.21102e-10 -3.36868e-13 181 167 140
-6.01433e-10 -5.21102e-10 -3.36868e-13 181 167 140
-6.0177e-10 -5.21102e-10 -3.36868e-13 181 167 140
-6.02107e-10 -5.21102e-10 -3.36868e-13 182 168 141
-6.02444e-10 -5.21102e-10 -3.36868e-13 182 168 141
-6.02781e-10 -5.21102e-10 -3.36868e-13 181 167 140
-6.03118e-10 -5.21102e-10 -3.36868e-13 181 167 140
-5.99412e-10 -5.21438e-10 -3.36868e-13 181 167 140
-6.0076e-10 -5.21438e-10 -3.36868e-13 181 167 140
-6.01096e-10 -5.21438e-10 -3.36868e-13 181 167 140
-6.01433e-10 -5.21438e-10 -3.36868e-13 181 167 140
-6.0177e-10 -5.21438e-10 -3.36868e-13 181 167 140
-6.02107e-10 -5.21438e-10 -3.36868e-13 181 167 140
-6.02444e-10 -5.21438e-10 -3.36868e-13 181 167 140
-6.02781e-10 -5.21438e-10 -3.36868e-13 181 167 140
-6.03118e-10 -5.21438e-10 -3.36868e-13 181 167 140
-6.03455e-10 -5.21438e-10 -3.36868e-13 181 167 140
-6.0076e-10 -5.21775e-10 -3.36868e-13 181 167 140
-6.01096e-10 -5.21775e-10 -3.36868e-13 181 167 140
-6.01433e-10 -5.21775e-10 -3.36868e-13 181 167 140
-6.0177e-10 -5.21775e-10 -3.36868e-13 181 167 140
-6.02107e-10 -5.21775e-10 -3.36868e-13 181 167 140
-6.02444e-10 -5.21775e-10 -3.36868e-13 181 167 140
-6.02781e-10 -5.21775e-10 -3.36868e-13 181 167 140
-6.03118e-10 -5.21775e-10 -3.36868e-13 181 167 140
-6.03455e-10 -5.21775e-10 -3.36868e-13 181 167 140
-6.0076e-10 -5.22112e-10 -3.36868e-13 181 167 140
-6.01096e-10 -5.22112e-10 -3.36868e-13 181 167 140
-6.01433e-10 -5.22112e-10 -3.36868e-13 181 167 140
-6.0177e-10 -5.22112e-10 -3.36868e-13 181 167 140
-6.02107e-10 -5.22112e-10 -3.36868e-13 181 167 140
-6.02444e-10 -5.22112e-10 -3.36868e-13 181 167 140
-6.02781e-10 -5.22112e-10 -3.36868e-13 181 167 140
-6.03118e-10 -5.22112e-10 -3.36868e-13 181 167 140
-6.03455e-10 -5.22112e-10 -3.36868e-13 181 167 140
-6.0076e-10 -5.22449e-10 -3.36868e-13 181 167 140
-6.01096e-10 -5.22449e-10 -3.36868e-13 181 167 140
-6.01433e-10 -5.22449e-10 -3.36868e-13 181 167 140
-6.0177e-10 -5.22449e-10 -3.36868e-13 181 167 140
-6.02107e-10 -5.22449e-10 -3.36868e-13 181 167 140
-6.02444e-10 -5.22449e-10 -3.36868e-13 181 167 140
-6.02781e-10 -5.22449e-10 -3.36868e-13 181 167 140
-6.03118e-10 -5.22449e-10 -3.36868e-13 181 167 140
-6.03455e-10 -5.22449e-10 -3.36868e-13 181 167 140
-6.0076e-10 -5.22786e-10 -3.36868e-13 181 167 140
-6.01096e-10 -5.22786e-10 -3.36868e-13 181 167 140
-6.01433e-10 -5.22786e-10 -3.36868e-13 181 167 140
-6.0177e-10 -5.22786e-10 -3.36868e-13 181 167 140
-6.02107e-10 -5.22786e-10 -3.36868e-13 181 167 140
-6.02444e-10 -5.22786e-10 -3.36868e-13 181 167 140
-6.02781e-10 -5.22786e-10 -3.36868e-13 181 167 140
-6.03118e-10 -5.22786e-10 -3.36868e-13 181 167 140
-6.03455e-10 -5.22786e-10 -3.36868e-13 181 167 140
-6.03791e-10 -5.22786e-10 -3.36868e-13 181 167 140
-6.0076e-10 -5.23123e-10 -3.36868e-13 181 167 140
