ply
format ascii 1.0
element vertex 942
property float x
property float y
property float z
property uchar red
property uchar green
property uchar blue
end_header
-1.77303e-10 -1.48658e-10 -1.06977e-13 182 168 141
-1.76769e-10 -1.48765e-10 -1.06977e-13 182 168 141
-1.76876e-10 -1.48765e-10 -1.06977e-13 182 168 141
-1.76983e-10 -1.48765e-10 -1.06977e-13 182 168 141
-1.77089e-10 -1.48765e-10 -1.06977e-13 182 168 141
-1.77196e-10 -1.48765e-10 -1.06977e-13 182 168 141
-1.77303e-10 -1.48765e-10 -1.06977e-13 182 168 141
-1.76769e-10 -1.48872e-10 -1.06977e-13 182 168 141
-1.76876e-10 -1.48872e-10 -1.06977e-13 182 168 141
-1.76983e-10 -1.48872e-10 -1.06977e-13 182 168 141
-1.77089e-10 -1.48872e-10 -1.06977e-13 182 168 141
-1.77196e-10 -1.48872e-10 -1.06977e-13 182 168 141
-1.77303e-10 -1.48872e-10 -1.06977e-13 182 168 141
-1.76769e-10 -1.48979e-10 -1.06977e-13 182 168 141
-1.76876e-10 -1.48979e-10 -1.06977e-13 182 168 141
-1.76983e-10 -1.48979e-10 -1.06977e-13 182 168 141
-1.77089e-10 -1.48979e-10 -1.06977e-13 182 168 141
-1.77196e-10 -1.48979e-10 -1.06977e-13 182 168 141
-1.76876e-10 -1.49086e-10 -1.06977e-13 182 168 141
-1.76983e-10 -1.49086e-10 -1.06977e-13 182 168 141
-1.77089e-10 -1.49086e-10 -1.06977e-13 182 168 141
-1.77196e-10 -1.49086e-10 -1.06977e-13 182 168 141
-1.76983e-10 -1.49193e-10 -1.06977e-13 182 168 141
-1.77089e-10 -1.49193e-10 -1.06977e-13 182 168 141
-1.76983e-10 -1.493e-10 -1.06977e-13 182 168 141
-1.77089e-10 -1.493e-10 -1.06977e-13 182 168 141
-1.76983e-10 -1.49407e-10 -1.06977e-13 182 168 141
-1.77089e-10 -1.49407e-10 -1.06977e-13 182 168 141
-1.76983e-10 -1.49514e-10 -1.06977e-13 182 168 141
-1.77089e-10 -1.49514e-10 -1.06977e-13 182 168 141
-1.76983e-10 -1.49621e-10 -1.06977e-13 182 168 141
-1.77089e-10 -1.49621e-10 -1.06977e-13 182 168 141
-1.77089e-10 -1.49728e-10 -1.06977e-13 183 169 142
-1.81689e-10 -1.5069e-10 -1.06977e-13 182 168 141
-1.81796e-10 -1.5069e-10 -1.06977e-13 182 168 141
-1.81903e-10 -1.5069e-10 -1.06977e-13 182 168 141
-1.81796e-10 -1.50797e-10 -1.06977e-13 182 168 141
-1.81903e-10 -1.50797e-10 -1.06977e-13 182 168 141
-1.8201e-10 -1.50797e-10 -1.06977e-13 182 168 141
-1.81903e-10 -1.50904e-10 -1.06977e-13 182 168 141
-1.8201e-10 -1.50904e-10 -1.06977e-13 182 168 141
-1.82117e-10 -1.50904e-10 -1.06977e-13 182 168 141
-1.82224e-10 -1.50904e-10 -1.06977e-13 182 168 141
-1.8201e-10 -1.51011e-10 -1.06977e-13 182 168 141
-1.82117e-10 -1.51011e-10 -1.06977e-13 182 168 141
-1.82224e-10 -1.51011e-10 -1.06977e-13 182 168 141
-1.82331e-10 -1.51011e-10 -1.06977e-13 182 168 141
-1.82117e-10 -1.51118e-10 -1.06977e-13 182 168 141
-1.82224e-10 -1.51118e-10 -1.06977e-13 182 168 141
-1.82331e-10 -1.51118e-10 -1.06977e-13 182 168 141
-1.82438e-10 -1.51118e-10 -1.06977e-13 182 168 141
-1.82545e-10 -1.51118e-10 -1.06977e-13 182 168 141
-1.82117e-10 -1.51225e-10 -1.06977e-13 182 168 141
-1.82224e-10 -1.51225e-10 -1.06977e-13 182 168 141
-1.82331e-10 -1.51225e-10 -1.06977e-13 182 168 141
-1.82438e-10 -1.51225e-10 -1.06977e-13 182 168 141
-1.82545e-10 -1.51225e-10 -1.06977e-13 182 168 141
-1.82652e-10 -1.51225e-10 -1.06977e-13 182 168 141
-1.82438e-10 -1.51332e-10 -1.06977e-13 182 168 141
-1.82545e-10 -1.51332e-10 -1.06977e-13 182 168 141
-1.82652e-10 -1.51332e-10 -1.06977e-13 182 168 141
-1.82759e-10 -1.51332e-10 -1.06977e-13 182 168 141
-1.82438e-10 -1.51439e-10 -1.06977e-13 182 168 141
-1.82545e-10 -1.51439e-10 -1.06977e-13 182 168 141
-1.82652e-10 -1.51439e-10 -1.06977e-13 182 168 141
-1.82759e-10 -1.51439e-10 -1.06977e-13 182 168 141
-1.82866e-10 -1.51439e-10 -1.06977e-13 182 168 141
-1.82545e-10 -1.51546e-10 -1.06977e-13 182 168 141
-1.82652e-10 -1.51546e-10 -1.06977e-13 182 168 141
-1.82759e-10 -1.51546e-10 -1.06977e-13 182 168 141
-1.82866e-10 -1.51546e-10 -1.06977e-13 182 168 141
-1.83898e-10 -1.52866e-10 -1.07832e-13 182 168 141
-1.82545e-10 -1.51653e-10 -1.06977e-13 182 168 141
-1.82652e-10 -1.51653e-10 -1.06977e-13 182 168 141
-1.82759e-10 -1.51653e-10 -1.06977e-13 182 168 141
-1.82866e-10 -1.51653e-10 -1.06977e-13 182 168 141
-1.82973e-10 -1.51653e-10 -1.06977e-13 182 168 141
-1.84082e-10 -1.53127e-10 -1.0794e-13 182 168 141
-1.82545e-10 -1.5176e-10 -1.06977e-13 182 168 141
-1.82652e-10 -1.5176e-10 -1.06977e-13 182 168 141
-1.82759e-10 -1.5176e-10 -1.06977e-13 182 168 141
-1.82866e-10 -1.5176e-10 -1.06977e-13 182 168 141
-1.82973e-10 -1.5176e-10 -1.06977e-13 182 168 141
-1.8308e-10 -1.5176e-10 -1.06977e-13 182 168 141
-1.82652e-10 -1.51867e-10 -1.06977e-13 182 168 141
-1.82759e-10 -1.51867e-10 -1.06977e-13 182 168 141
-1.82866e-10 -1.51867e-10 -1.06977e-13 182 168 141
-1.82973e-10 -1.51867e-10 -1.06977e-13 182 168 141
-1.8308e-10 -1.51867e-10 -1.06977e-13 182 168 141
-1.83187e-10 -1.51867e-10 -1.06977e-13 182 168 141
-1.8419e-10 -1.53343e-10 -1.0794e-13 182 168 141
-1.82652e-10 -1.51974e-10 -1.06977e-13 182 168 141
-1.82759e-10 -1.51974e-10 -1.06977e-13 182 168 141
-1.82866e-10 -1.51974e-10 -1.06977e-13 182 168 141
-1.82973e-10 -1.51974e-10 -1.06977e-13 182 168 141
-1.8308e-10 -1.51974e-10 -1.06977e-13 182 168 141
-1.83187e-10 -1.51974e-10 -1.06977e-13 182 168 141
-1.82759e-10 -1.52081e-10 -1.06977e-13 182 168 141
-1.82866e-10 -1.52081e-10 -1.06977e-13 182 168 141
-1.82973e-10 -1.52081e-10 -1.06977e-13 182 168 141
-1.8308e-10 -1.52081e-10 -1.06977e-13 182 168 141
-1.83187e-10 -1.52081e-10 -1.06977e-13 182 168 141
-1.83294e-10 -1.52081e-10 -1.06977e-13 182 168 141
-1.82759e-10 -1.52188e-10 -1.06977e-13 182 168 141
-1.82866e-10 -1.52188e-10 -1.06977e-13 182 168 141
-1.82973e-10 -1.52188e-10 -1.06977e-13 182 168 141
-1.8308e-10 -1.52188e-10 -1.06977e-13 182 168 141
-1.83187e-10 -1.52188e-10 -1.06977e-13 182 168 141
-1.83294e-10 -1.52188e-10 -1.06977e-13 182 168 141
-1.83401e-10 -1.52188e-10 -1.06977e-13 182 168 141
-1.82866e-10 -1.52295e-10 -1.06977e-13 182 168 141
-1.82973e-10 -1.52295e-10 -1.06977e-13 182 168 141
-1.8308e-10 -1.52295e-10 -1.06977e-13 182 168 141
-1.83187e-10 -1.52295e-10 -1.06977e-13 182 168 141
-1.83294e-10 -1.52295e-10 -1.06977e-13 182 168 141
-1.83401e-10 -1.52295e-10 -1.06977e-13 182 168 141
-1.83508e-10 -1.52295e-10 -1.06977e-13 182 168 141
-1.82866e-10 -1.52402e-10 -1.06977e-13 182 168 141
-1.82973e-10 -1.52402e-10 -1.06977e-13 182 168 141
-1.8308e-10 -1.52402e-10 -1.06977e-13 182 168 141
-1.83187e-10 -1.52402e-10 -1.06977e-13 182 168 141
-1.83294e-10 -1.52402e-10 -1.06977e-13 182 168 141
-1.83401e-10 -1.52402e-10 -1.06977e-13 182 168 141
-1.83508e-10 -1.52402e-10 -1.06977e-13 182 168 141
-1.82973e-10 -1.52509e-10 -1.06977e-13 182 168 141
-1.8308e-10 -1.52509e-10 -1.06977e-13 182 168 141
-1.83187e-10 -1.52509e-10 -1.06977e-13 182 168 141
-1.83294e-10 -1.52509e-10 -1.06977e-13 182 168 141
-1.83401e-10 -1.52509e-10 -1.06977e-13 182 168 141
-1.83508e-10 -1.52509e-10 -1.06977e-13 182 168 141
-1.83615e-10 -1.52509e-10 -1.06977e-13 182 168 141
-1.96902e-08 -1.7093e-08 -1.19814e-11 179 165 138
-1.82973e-10 -1.52616e-10 -1.06977e-13 182 168 141
-1.8308e-10 -1.52616e-10 -1.06977e-13 182 168 141
-1.83187e-10 -1.52616e-10 -1.06977e-13 182 168 141
-1.83294e-10 -1.52616e-10 -1.06977e-13 182 168 141
-1.83401e-10 -1.52616e-10 -1.06977e-13 182 168 141
-1.83508e-10 -1.52616e-10 -1.06977e-13 182 168 141
-1.83615e-10 -1.52616e-10 -1.06977e-13 182 168 141
-1.77212e-08 -1.53945e-08 -1.07832e-11 179 165 138
-1.82973e-10 -1.52723e-10 -1.06977e-13 182 168 141
-1.8308e-10 -1.52723e-10 -1.06977e-13 182 168 141
-1.83294e-10 -1.52723e-10 -1.06977e-13 182 168 141
-1.83401e-10 -1.52723e-10 -1.06977e-13 182 168 141
-1.83508e-10 -1.52723e-10 -1.06977e-13 182 168 141
-1.83615e-10 -1.52723e-10 -1.06977e-13 182 168 141
-1.83722e-10 -1.52723e-10 -1.06977e-13 182 168 141
-1.96902e-08 -1.7117e-08 -1.19814e-11 179 165 138
-1.82973e-10 -1.5283e-10 -1.06977e-13 182 168 141
-1.8308e-10 -1.5283e-10 -1.06977e-13 182 168 141
-1.84653e-10 -1.54053e-10 -1.07832e-13 182 168 141
-1.83294e-10 -1.5283e-10 -1.06977e-13 182 168 141
-1.83401e-10 -1.5283e-10 -1.06977e-13 182 168 141
-1.83508e-10 -1.5283e-10 -1.06977e-13 182 168 141
-1.83615e-10 -1.5283e-10 -1.06977e-13 182 168 141
-1.83722e-10 -1.5283e-10 -1.06977e-13 182 168 141
-1.83829e-10 -1.5283e-10 -1.06977e-13 182 168 141
-1.82973e-10 -1.52937e-10 -1.06977e-13 182 168 141
-1.83401e-10 -1.52937e-10 -1.06977e-13 182 168 141
-1.83508e-10 -1.52937e-10 -1.06977e-13 182 168 141
-1.83615e-10 -1.52937e-10 -1.06977e-13 182 168 141
-1.83722e-10 -1.52937e-10 -1.06977e-13 182 168 141
-1.83829e-10 -1.52937e-10 -1.06977e-13 182 168 141
-1.83401e-10 -1.53044e-10 -1.06977e-13 182 168 141
-1.83508e-10 -1.53044e-10 -1.06977e-13 182 168 141
-1.83615e-10 -1.53044e-10 -1.06977e-13 182 168 141
-1.83722e-10 -1.53044e-10 -1.06977e-13 182 168 141
-1.83829e-10 -1.53044e-10 -1.06977e-13 182 168 141
-1.83936e-10 -1.53044e-10 -1.06977e-13 182 168 141
-1.83401e-10 -1.53151e-10 -1.06977e-13 182 168 141
-1.83508e-10 -1.53151e-10 -1.06977e-13 182 168 141
-1.83615e-10 -1.53151e-10 -1.06977e-13 182 168 141
-1.83722e-10 -1.53151e-10 -1.06977e-13 182 168 141
-1.83829e-10 -1.53151e-10 -1.06977e-13 182 168 141
-1.83936e-10 -1.53151e-10 -1.06977e-13 182 168 141
-1.83508e-10 -1.53258e-10 -1.06977e-13 182 168 141
-1.83615e-10 -1.53258e-10 -1.06977e-13 182 168 141
-1.83722e-10 -1.53258e-10 -1.06977e-13 182 168 141
-1.83829e-10 -1.53258e-10 -1.06977e-13 182 168 141
-1.83936e-10 -1.53258e-10 -1.06977e-13 182 168 141
-1.83508e-10 -1.53365e-10 -1.06977e-13 182 168 141
-1.83615e-10 -1.53365e-10 -1.06977e-13 182 168 141
-1.83722e-10 -1.53365e-10 -1.06977e-13 182 168 141
-1.83829e-10 -1.53365e-10 -1.06977e-13 182 168 141
-1.83936e-10 -1.53365e-10 -1.06977e-13 182 168 141
-1.84043e-10 -1.53365e-10 -1.06977e-13 182 168 141
-1.83508e-10 -1.53472e-10 -1.06977e-13 183 169 142
-1.83615e-10 -1.53472e-10 -1.06977e-13 182 168 141
-1.83722e-10 -1.53472e-10 -1.06977e-13 182 168 141
-1.83829e-10 -1.53472e-10 -1.06977e-13 182 168 141
-1.83936e-10 -1.53472e-10 -1.06977e-13 182 168 141
-1.84043e-10 -1.53472e-10 -1.06977e-13 182 168 141
-1.83722e-10 -1.53579e-10 -1.06977e-13 183 169 142
-1.83829e-10 -1.53579e-10 -1.06977e-13 182 168 141
-1.83936e-10 -1.53579e-10 -1.06977e-13 182 168 141
-1.84043e-10 -1.53579e-10 -1.06977e-13 182 168 141
-1.8415e-10 -1.53579e-10 -1.06977e-13 182 168 141
-1.83722e-10 -1.53686e-10 -1.06977e-13 182 168 141
-1.83829e-10 -1.53686e-10 -1.06977e-13 182 168 141
-1.83936e-10 -1.53686e-10 -1.06977e-13 182 168 141
-1.84043e-10 -1.53686e-10 -1.06977e-13 182 168 141
-1.8415e-10 -1.53686e-10 -1.06977e-13 182 168 141
-1.83829e-10 -1.53793e-10 -1.06977e-13 182 168 141
-1.83936e-10 -1.53793e-10 -1.06977e-13 182 168 141
-1.84043e-10 -1.53793e-10 -1.06977e-13 182 168 141
-1.8415e-10 -1.53793e-10 -1.06977e-13 182 168 141
-1.84257e-10 -1.53793e-10 -1.06977e-13 182 168 141
-1.83829e-10 -1.539e-10 -1.06977e-13 182 168 141
-1.83936e-10 -1.539e-10 -1.06977e-13 182 168 141
-1.84043e-10 -1.539e-10 -1.06977e-13 182 168 141
-1.8415e-10 -1.539e-10 -1.06977e-13 182 168 141
-1.84257e-10 -1.539e-10 -1.06977e-13 182 168 141
-1.83829e-10 -1.54007e-10 -1.06977e-13 181 167 140
-1.83936e-10 -1.54007e-10 -1.06977e-13 181 167 140
-1.8415e-10 -1.54007e-10 -1.06977e-13 182 168 141
-1.84257e-10 -1.54007e-10 -1.06977e-13 182 168 141
-1.84364e-10 -1.54007e-10 -1.06977e-13 182 168 141
-1.8415e-10 -1.54114e-10 -1.06977e-13 181 167 140
-1.84257e-10 -1.54114e-10 -1.06977e-13 181 167 140
-1.84364e-10 -1.54114e-10 -1.06977e-13 181 167 140
-1.84257e-10 -1.54221e-10 -1.06977e-13 181 167 140
-1.84364e-10 -1.54221e-10 -1.06977e-13 181 167 140
-1.84257e-10 -1.54328e-10 -1.06977e-13 182 168 141
-1.84364e-10 -1.54328e-10 -1.06977e-13 182 168 141
-1.84471e-10 -1.54328e-10 -1.06977e-13 182 168 141
-1.84257e-10 -1.54435e-10 -1.06977e-13 182 168 141
-1.84364e-10 -1.54435e-10 -1.06977e-13 182 168 141
-1.84471e-10 -1.54435e-10 -1.06977e-13 182 168 141
-1.84364e-10 -1.54542e-10 -1.06977e-13 182 168 141
-1.84471e-10 -1.54542e-10 -1.06977e-13 182 168 141
-1.84364e-10 -1.54649e-10 -1.06977e-13 182 168 141
-1.84471e-10 -1.54649e-10 -1.06977e-13 182 168 141
-1.84471e-10 -1.54756e-10 -1.06977e-13 182 168 141
-1.84471e-10 -1.54863e-10 -1.06977e-13 182 168 141
-1.84578e-10 -1.54863e-10 -1.06977e-13 182 168 141
-1.84471e-10 -1.5497e-10 -1.06977e-13 183 169 141
-8.90374e-09 -7.8482e-09 -5.39162e-12 185 171 144
-8.90374e-09 -7.8536e-09 -5.39162e-12 185 171 144
-8.90374e-09 -7.85899e-09 -5.39162e-12 184 171 144
-9.37236e-09 -8.27829e-09 -5.67539e-12 183 171 143
-1.11297e-08 -9.83721e-09 -6.73953e-12 183 172 144
-1.48396e-08 -1.31253e-08 -8.98604e-12 183 172 144
-1.61886e-08 -1.43283e-08 -9.80295e-12 183 172 144
-1.97861e-08 -1.75243e-08 -1.19814e-11 183 172 144
-7.42428e-09 -6.57162e-09 -4.49302e-12 183 172 144
-1.6218e-08 -1.43577e-08 -9.80295e-12 183 172 144
-1.6218e-08 -1.43675e-08 -9.80295e-12 183 172 144
-1.78398e-08 -1.5815e-08 -1.07832e-11 184 173 145
-1.9822e-08 -1.75842e-08 -1.19814e-11 184 173 145
-8.11392e-09 -7.19355e-09 -4.90147e-12 184 173 145
-1.78398e-08 -1.58366e-08 -1.07832e-11 183 172 144
-7.76114e-09 -6.88547e-09 -4.68837e-12 183 172 144
-1.78398e-08 -1.58474e-08 -1.07832e-11 183 172 144
-7.76114e-09 -6.89016e-09 -4.68837e-12 183 172 144
-9.91701e-09 -8.81009e-09 -5.99069e-12 183 172 144
-1.48755e-08 -1.32241e-08 -8.98604e-12 183 172 144
-7.44225e-09 -6.61206e-09 -4.49302e-12 183 172 144
-1.78506e-08 -1.58797e-08 -1.07832e-11 184 173 145
-1.62376e-08 -1.44361e-08 -9.80295e-12 184 173 145
-1.86396e-10 -1.58286e-10 -1.06977e-13 180 166 139
-1.86396e-10 -1.58393e-10 -1.06977e-13 180 166 139
-1.86503e-10 -1.58393e-10 -1.06977e-13 180 166 139
-1.86503e-10 -1.585e-10 -1.06977e-13 180 166 139
-1.8661e-10 -1.585e-10 -1.06977e-13 180 166 139
-1.86503e-10 -1.58607e-10 -1.06977e-13 181 167 140
-1.8661e-10 -1.58607e-10 -1.06977e-13 181 167 140
-1.86717e-10 -1.58607e-10 -1.06977e-13 180 166 139
-1.8661e-10 -1.58714e-10 -1.06977e-13 181 167 140
-1.86717e-10 -1.58714e-10 -1.06977e-13 181 167 140
-1.86824e-10 -1.58714e-10 -1.06977e-13 181 167 140
-1.8661e-10 -1.58821e-10 -1.06977e-13 182 168 141
-1.86717e-10 -1.58821e-10 -1.06977e-13 181 167 140
-1.86824e-10 -1.58821e-10 -1.06977e-13 181 167 140
-1.8661e-10 -1.58928e-10 -1.06977e-13 182 168 141
-1.86717e-10 -1.58928e-10 -1.06977e-13 182 168 141
-1.86824e-10 -1.58928e-10 -1.06977e-13 182 168 141
-1.86931e-10 -1.58928e-10 -1.06977e-13 182 168 141
-1.8661e-10 -1.59035e-10 -1.06977e-13 183 169 142
-1.86717e-10 -1.59035e-10 -1.06977e-13 182 168 142
-1.86824e-10 -1.59035e-10 -1.06977e-13 182 168 142
-1.86931e-10 -1.59035e-10 -1.06977e-13 182 168 141
-1.87038e-10 -1.59035e-10 -1.06977e-13 182 168 141
-1.86931e-10 -1.59142e-10 -1.06977e-13 183 169 142
-1.87038e-10 -1.59142e-10 -1.06977e-13 182 168 142
-1.87145e-10 -1.59142e-10 -1.06977e-13 182 168 142
-1.86931e-10 -1.59249e-10 -1.06977e-13 183 169 143
-1.87038e-10 -1.59249e-10 -1.06977e-13 183 169 143
-1.87145e-10 -1.59249e-10 -1.06977e-13 183 169 143
-1.86931e-10 -1.59356e-10 -1.06977e-13 184 170 144
-1.87038e-10 -1.59356e-10 -1.06977e-13 183 169 143
-1.87145e-10 -1.59356e-10 -1.06977e-13 183 169 143
-1.87252e-10 -1.59356e-10 -1.06977e-13 183 169 143
-1.87038e-10 -1.59463e-10 -1.06977e-13 184 170 144
-1.87145e-10 -1.59463e-10 -1.06977e-13 184 170 144
-1.87252e-10 -1.59463e-10 -1.06977e-13 184 170 144
-1.87359e-10 -1.59463e-10 -1.06977e-13 183 169 143
-1.87038e-10 -1.5957e-10 -1.06977e-13 184 170 144
-1.87145e-10 -1.5957e-10 -1.06977e-13 184 170 144
-1.87252e-10 -1.5957e-10 -1.06977e-13 184 170 144
-1.87359e-10 -1.5957e-10 -1.06977e-13 184 170 144
-1.88615e-10 -1.61115e-10 -1.0794e-13 185 171 145
-1.87038e-10 -1.59676e-10 -1.06977e-13 185 171 145
-1.87145e-10 -1.59676e-10 -1.06977e-13 185 171 145
-1.87252e-10 -1.59676e-10 -1.06977e-13 185 171 145
-1.87359e-10 -1.59676e-10 -1.06977e-13 184 170 144
-1.87466e-10 -1.59676e-10 -1.06977e-13 184 170 144
-1.87145e-10 -1.59783e-10 -1.06977e-13 185 171 145
-1.87252e-10 -1.59783e-10 -1.06977e-13 185 171 145
-1.87359e-10 -1.59783e-10 -1.06977e-13 185 171 145
-1.87466e-10 -1.59783e-10 -1.06977e-13 185 171 145
-1.87573e-10 -1.59783e-10 -1.06977e-13 185 171 145
-1.87145e-10 -1.5989e-10 -1.06977e-13 185 171 145
-1.87252e-10 -1.5989e-10 -1.06977e-13 185 171 145
-1.87359e-10 -1.5989e-10 -1.06977e-13 185 171 145
-1.87466e-10 -1.5989e-10 -1.06977e-13 185 171 145
-1.87573e-10 -1.5989e-10 -1.06977e-13 185 171 145
-1.8768e-10 -1.5989e-10 -1.06977e-13 185 171 145
-1.87145e-10 -1.59997e-10 -1.06977e-13 185 171 145
-1.87252e-10 -1.59997e-10 -1.06977e-13 185 171 145
-1.87359e-10 -1.59997e-10 -1.06977e-13 185 171 145
-1.87466e-10 -1.59997e-10 -1.06977e-13 185 171 145
-1.87573e-10 -1.59997e-10 -1.06977e-13 185 171 145
-1.8768e-10 -1.59997e-10 -1.06977e-13 185 171 145
-1.87145e-10 -1.60104e-10 -1.06977e-13 185 171 145
-1.87252e-10 -1.60104e-10 -1.06977e-13 185 171 145
-1.87359e-10 -1.60104e-10 -1.06977e-13 185 171 145
-1.87466e-10 -1.60104e-10 -1.06977e-13 185 171 145
-1.87573e-10 -1.60104e-10 -1.06977e-13 185 171 145
-1.8768e-10 -1.60104e-10 -1.06977e-13 185 171 145
-1.87787e-10 -1.60104e-10 -1.06977e-13 185 171 145
-1.87252e-10 -1.60211e-10 -1.06977e-13 185 171 145
-1.87359e-10 -1.60211e-10 -1.06977e-13 185 171 145
-1.87466e-10 -1.60211e-10 -1.06977e-13 185 171 145
-1.87573e-10 -1.60211e-10 -1.06977e-13 185 171 145
-1.8768e-10 -1.60211e-10 -1.06977e-13 185 171 145
-1.87787e-10 -1.60211e-10 -1.06977e-13 185 171 145
-1.87894e-10 -1.60211e-10 -1.06977e-13 185 171 145
-1.87252e-10 -1.60318e-10 -1.06977e-13 185 171 145
-1.87359e-10 -1.60318e-10 -1.06977e-13 185 171 145
-1.87466e-10 -1.60318e-10 -1.06977e-13 185 171 145
-1.87573e-10 -1.60318e-10 -1.06977e-13 185 171 145
-1.8768e-10 -1.60318e-10 -1.06977e-13 185 171 145
-1.87787e-10 -1.60318e-10 -1.06977e-13 185 171 145
-1.87894e-10 -1.60318e-10 -1.06977e-13 185 171 145
-1.88001e-10 -1.60318e-10 -1.06977e-13 185 171 145
-1.87466e-10 -1.60425e-10 -1.06977e-13 185 171 145
-1.87573e-10 -1.60425e-10 -1.06977e-13 185 171 145
-1.8768e-10 -1.60425e-10 -1.06977e-13 185 171 145
-1.87787e-10 -1.60425e-10 -1.06977e-13 185 171 145
-1.87894e-10 -1.60425e-10 -1.06977e-13 185 171 145
-1.88001e-10 -1.60425e-10 -1.06977e-13 185 171 145
-1.87573e-10 -1.60532e-10 -1.06977e-13 185 171 145
-1.8768e-10 -1.60532e-10 -1.06977e-13 185 171 145
-1.87787e-10 -1.60532e-10 -1.06977e-13 185 171 145
-1.87894e-10 -1.60532e-10 -1.06977e-13 185 171 145
-1.88001e-10 -1.60532e-10 -1.06977e-13 185 171 145
-1.88108e-10 -1.60532e-10 -1.06977e-13 185 171 145
-1.87573e-10 -1.60639e-10 -1.06977e-13 185 171 145
-1.8768e-10 -1.60639e-10 -1.06977e-13 185 171 145
-1.87787e-10 -1.60639e-10 -1.06977e-13 185 171 145
-1.87894e-10 -1.60639e-10 -1.06977e-13 185 171 145
-1.88001e-10 -1.60639e-10 -1.06977e-13 185 171 145
-1.88108e-10 -1.60639e-10 -1.06977e-13 185 171 145
-1.88215e-10 -1.60639e-10 -1.06977e-13 185 171 145
-1.8768e-10 -1.60746e-10 -1.06977e-13 185 171 145
-1.87787e-10 -1.60746e-10 -1.06977e-13 186 172 146
-1.87894e-10 -1.60746e-10 -1.06977e-13 186 172 146
-1.88001e-10 -1.60746e-10 -1.06977e-13 186 172 146
-1.88108e-10 -1.60746e-10 -1.06977e-13 185 171 145
-1.88215e-10 -1.60746e-10 -1.06977e-13 185 171 145
-1.8768e-10 -1.60853e-10 -1.06977e-13 185 171 145
-1.87787e-10 -1.60853e-10 -1.06977e-13 185 171 145
-1.87894e-10 -1.60853e-10 -1.06977e-13 186 172 146
-1.88001e-10 -1.60853e-10 -1.06977e-13 186 172 146
-1.88108e-10 -1.60853e-10 -1.06977e-13 186 172 146
-1.88215e-10 -1.60853e-10 -1.06977e-13 186 172 146
-1.88322e-10 -1.60853e-10 -1.06977e-13 186 172 146
-1.87787e-10 -1.6096e-10 -1.06977e-13 185 171 145
-1.87894e-10 -1.6096e-10 -1.06977e-13 185 171 145
-1.88001e-10 -1.6096e-10 -1.06977e-13 185 171 145
-1.88108e-10 -1.6096e-10 -1.06977e-13 186 172 146
-1.88215e-10 -1.6096e-10 -1.06977e-13 186 172 146
-1.88322e-10 -1.6096e-10 -1.06977e-13 186 172 146
-1.87787e-10 -1.61067e-10 -1.06977e-13 185 171 145
-1.87894e-10 -1.61067e-10 -1.06977e-13 185 171 145
-1.88001e-10 -1.61067e-10 -1.06977e-13 185 171 145
-1.88108e-10 -1.61067e-10 -1.06977e-13 185 171 145
-1.88215e-10 -1.61067e-10 -1.06977e-13 185 171 145
-1.88322e-10 -1.61067e-10 -1.06977e-13 186 172 146
-1.88429e-10 -1.61067e-10 -1.06977e-13 186 172 146
-1.87787e-10 -1.61174e-10 -1.06977e-13 185 171 145
-1.87894e-10 -1.61174e-10 -1.06977e-13 185 171 145
-1.88001e-10 -1.61174e-10 -1.06977e-13 185 171 145
-1.88108e-10 -1.61174e-10 -1.06977e-13 185 171 145
-1.88215e-10 -1.61174e-10 -1.06977e-13 185 171 145
-1.88322e-10 -1.61174e-10 -1.06977e-13 185 171 145
-1.88429e-10 -1.61174e-10 -1.06977e-13 185 171 145
-1.88536e-10 -1.61174e-10 -1.06977e-13 186 172 146
-1.87894e-10 -1.61281e-10 -1.06977e-13 185 171 145
-1.88001e-10 -1.61281e-10 -1.06977e-13 185 171 145
-1.88108e-10 -1.61281e-10 -1.06977e-13 185 171 145
-1.88215e-10 -1.61281e-10 -1.06977e-13 185 171 145
-1.88322e-10 -1.61281e-10 -1.06977e-13 185 171 145
-1.88429e-10 -1.61281e-10 -1.06977e-13 185 171 145
-1.88536e-10 -1.61281e-10 -1.06977e-13 185 171 145
-1.87894e-10 -1.61388e-10 -1.06977e-13 185 171 145
-1.88001e-10 -1.61388e-10 -1.06977e-13 185 171 145
-1.88108e-10 -1.61388e-10 -1.06977e-13 185 171 145
-1.88215e-10 -1.61388e-10 -1.06977e-13 185 171 145
-1.88322e-10 -1.61388e-10 -1.06977e-13 185 171 145
-1.88429e-10 -1.61388e-10 -1.06977e-13 185 171 145
-1.88536e-10 -1.61388e-10 -1.06977e-13 185 171 145
-1.88643e-10 -1.61388e-10 -1.06977e-13 185 171 145
-1.88001e-10 -1.61495e-10 -1.06977e-13 185 171 145
-1.88108e-10 -1.61495e-10 -1.06977e-13 185 171 145
-1.88215e-10 -1.61495e-10 -1.06977e-13 185 171 145
-1.88322e-10 -1.61495e-10 -1.06977e-13 185 171 145
-1.88429e-10 -1.61495e-10 -1.06977e-13 185 171 145
-1.88536e-10 -1.61495e-10 -1.06977e-13 185 171 145
-1.88643e-10 -1.61495e-10 -1.06977e-13 185 171 145
-1.88108e-10 -1.61602e-10 -1.06977e-13 185 171 145
-1.88215e-10 -1.61602e-10 -1.06977e-13 185 171 145
-1.88322e-10 -1.61602e-10 -1.06977e-13 185 171 145
-1.88429e-10 -1.61602e-10 -1.06977e-13 185 171 145
-1.88536e-10 -1.61602e-10 -1.06977e-13 185 171 145
-1.88643e-10 -1.61602e-10 -1.06977e-13 185 171 145
-1.8875e-10 -1.61602e-10 -1.06977e-13 185 171 145
-1.88108e-10 -1.61709e-10 -1.06977e-13 185 171 145
-1.88215e-10 -1.61709e-10 -1.06977e-13 185 171 145
-1.88322e-10 -1.61709e-10 -1.06977e-13 185 171 145
-1.88429e-10 -1.61709e-10 -1.06977e-13 185 171 145
-1.88536e-10 -1.61709e-10 -1.06977e-13 185 171 145
-1.88643e-10 -1.61709e-10 -1.06977e-13 185 171 145
-1.8875e-10 -1.61709e-10 -1.06977e-13 185 171 145
-1.89885e-10 -1.63437e-10 -1.08049e-13 185 171 145
-1.88108e-10 -1.61816e-10 -1.06977e-13 185 171 145
-1.88215e-10 -1.61816e-10 -1.06977e-13 185 171 145
-1.88322e-10 -1.61816e-10 -1.06977e-13 185 171 145
-1.88429e-10 -1.61816e-10 -1.06977e-13 185 171 145
-1.88536e-10 -1.61816e-10 -1.06977e-13 185 171 145
-1.88643e-10 -1.61816e-10 -1.06977e-13 185 171 145
-1.8875e-10 -1.61816e-10 -1.06977e-13 185 171 145
-1.88857e-10 -1.61816e-10 -1.06977e-13 185 171 145
-1.88108e-10 -1.61923e-10 -1.06977e-13 185 171 145
-1.88215e-10 -1.61923e-10 -1.06977e-13 185 171 145
-1.88322e-10 -1.61923e-10 -1.06977e-13 185 171 145
-1.88429e-10 -1.61923e-10 -1.06977e-13 185 171 145
-1.88536e-10 -1.61923e-10 -1.06977e-13 185 171 145
-1.88643e-10 -1.61923e-10 -1.06977e-13 185 171 145
-1.8875e-10 -1.61923e-10 -1.06977e-13 185 171 145
-1.88857e-10 -1.61923e-10 -1.06977e-13 185 171 145
-1.88108e-10 -1.6203e-10 -1.06977e-13 185 171 145
-1.88215e-10 -1.6203e-10 -1.06977e-13 185 171 145
-1.88322e-10 -1.6203e-10 -1.06977e-13 185 171 145
-1.88429e-10 -1.6203e-10 -1.06977e-13 185 171 145
-1.88536e-10 -1.6203e-10 -1.06977e-13 185 171 145
-1.88643e-10 -1.6203e-10 -1.06977e-13 185 171 145
-1.8875e-10 -1.6203e-10 -1.06977e-13 185 171 145
-1.88857e-10 -1.6203e-10 -1.06977e-13 185 171 145
-1.88964e-10 -1.6203e-10 -1.06977e-13 185 171 145
-1.88215e-10 -1.62137e-10 -1.06977e-13 185 171 145
-1.88322e-10 -1.62137e-10 -1.06977e-13 185 171 145
-1.88429e-10 -1.62137e-10 -1.06977e-13 185 171 145
-1.88536e-10 -1.62137e-10 -1.06977e-13 185 171 145
-1.88643e-10 -1.62137e-10 -1.06977e-13 185 171 145
-1.8875e-10 -1.62137e-10 -1.06977e-13 185 171 145
-1.88857e-10 -1.62137e-10 -1.06977e-13 185 171 145
-1.88964e-10 -1.62137e-10 -1.06977e-13 185 171 145
-1.89071e-10 -1.62137e-10 -1.06977e-13 185 171 145
-1.88215e-10 -1.62244e-10 -1.06977e-13 185 171 145
-1.88429e-10 -1.62244e-10 -1.06977e-13 185 171 145
-1.88536e-10 -1.62244e-10 -1.06977e-13 185 171 145
-1.88643e-10 -1.62244e-10 -1.06977e-13 185 171 145
-1.8875e-10 -1.62244e-10 -1.06977e-13 185 171 145
-1.88857e-10 -1.62244e-10 -1.06977e-13 185 171 145
-1.88964e-10 -1.62244e-10 -1.06977e-13 185 171 145
-1.89071e-10 -1.62244e-10 -1.06977e-13 185 171 145
-1.88429e-10 -1.62351e-10 -1.06977e-13 185 171 145
-1.88536e-10 -1.62351e-10 -1.06977e-13 185 171 145
-1.88643e-10 -1.62351e-10 -1.06977e-13 185 171 145
-1.8875e-10 -1.62351e-10 -1.06977e-13 185 171 145
-1.88857e-10 -1.62351e-10 -1.06977e-13 185 171 145
-1.88964e-10 -1.62351e-10 -1.06977e-13 185 171 145
-1.89071e-10 -1.62351e-10 -1.06977e-13 185 171 145
-1.89178e-10 -1.62351e-10 -1.06977e-13 185 171 145
-1.88429e-10 -1.62458e-10 -1.06977e-13 185 171 145
-1.88536e-10 -1.62458e-10 -1.06977e-13 185 171 145
-1.88643e-10 -1.62458e-10 -1.06977e-13 185 171 145
-1.8875e-10 -1.62458e-10 -1.06977e-13 185 171 145
-1.88857e-10 -1.62458e-10 -1.06977e-13 185 171 145
-1.88964e-10 -1.62458e-10 -1.06977e-13 185 171 145
-1.89071e-10 -1.62458e-10 -1.06977e-13 185 171 145
-1.89178e-10 -1.62458e-10 -1.06977e-13 185 171 145
-1.88429e-10 -1.62565e-10 -1.06977e-13 185 171 145
-1.88536e-10 -1.62565e-10 -1.06977e-13 185 171 145
-1.88643e-10 -1.62565e-10 -1.06977e-13 185 171 145
-1.8875e-10 -1.62565e-10 -1.06977e-13 185 171 145
-1.88857e-10 -1.62565e-10 -1.06977e-13 185 171 145
-1.88964e-10 -1.62565e-10 -1.06977e-13 185 171 145
-1.89071e-10 -1.62565e-10 -1.06977e-13 185 171 145
-1.89178e-10 -1.62565e-10 -1.06977e-13 185 171 145
-1.89285e-10 -1.62565e-10 -1.06977e-13 185 171 145
-1.88429e-10 -1.62672e-10 -1.06977e-13 184 170 144
-1.88536e-10 -1.62672e-10 -1.06977e-13 184 170 144
-1.88643e-10 -1.62672e-10 -1.06977e-13 184 170 144
-1.8875e-10 -1.62672e-10 -1.06977e-13 185 171 145
-1.88857e-10 -1.62672e-10 -1.06977e-13 185 171 145
-1.88964e-10 -1.62672e-10 -1.06977e-13 185 171 145
-1.89071e-10 -1.62672e-10 -1.06977e-13 185 171 145
-1.89178e-10 -1.62672e-10 -1.06977e-13 185 171 145
-1.89285e-10 -1.62672e-10 -1.06977e-13 185 171 145
-1.89392e-10 -1.62672e-10 -1.06977e-13 185 171 145
-1.88536e-10 -1.62779e-10 -1.06977e-13 184 170 144
-1.88643e-10 -1.62779e-10 -1.06977e-13 184 170 144
-1.8875e-10 -1.62779e-10 -1.06977e-13 184 170 144
-1.88857e-10 -1.62779e-10 -1.06977e-13 184 170 144
-1.88964e-10 -1.62779e-10 -1.06977e-13 184 170 144
-1.89071e-10 -1.62779e-10 -1.06977e-13 185 171 145
-1.89178e-10 -1.62779e-10 -1.06977e-13 185 171 145
-1.89285e-10 -1.62779e-10 -1.06977e-13 185 171 145
-1.89392e-10 -1.62779e-10 -1.06977e-13 185 171 145
-1.88536e-10 -1.62886e-10 -1.06977e-13 184 170 144
-1.88643e-10 -1.62886e-10 -1.06977e-13 184 170 144
-1.8875e-10 -1.62886e-10 -1.06977e-13 184 170 144
-1.88857e-10 -1.62886e-10 -1.06977e-13 184 170 144
-1.88964e-10 -1.62886e-10 -1.06977e-13 184 170 144
-1.89071e-10 -1.62886e-10 -1.06977e-13 184 170 144
-1.89178e-10 -1.62886e-10 -1.06977e-13 184 170 144
-1.89285e-10 -1.62886e-10 -1.06977e-13 184 170 144
-1.89392e-10 -1.62886e-10 -1.06977e-13 185 171 145
-1.89499e-10 -1.62886e-10 -1.06977e-13 185 171 145
-1.88536e-10 -1.62993e-10 -1.06977e-13 184 170 144
-1.88643e-10 -1.62993e-10 -1.06977e-13 184 170 144
-1.8875e-10 -1.62993e-10 -1.06977e-13 184 170 144
-1.88857e-10 -1.62993e-10 -1.06977e-13 184 170 144
-1.88964e-10 -1.62993e-10 -1.06977e-13 184 170 144
-1.89071e-10 -1.62993e-10 -1.06977e-13 184 170 144
-1.89178e-10 -1.62993e-10 -1.06977e-13 184 170 144
-1.89285e-10 -1.62993e-10 -1.06977e-13 184 170 144
-1.89392e-10 -1.62993e-10 -1.06977e-13 184 170 144
-1.89499e-10 -1.62993e-10 -1.06977e-13 184 170 144
-1.89606e-10 -1.62993e-10 -1.06977e-13 185 171 145
-1.88643e-10 -1.631e-10 -1.06977e-13 185 171 144
-1.8875e-10 -1.631e-10 -1.06977e-13 185 171 144
-1.88857e-10 -1.631e-10 -1.06977e-13 184 170 144
-1.88964e-10 -1.631e-10 -1.06977e-13 184 170 144
-1.89071e-10 -1.631e-10 -1.06977e-13 184 170 144
-1.89178e-10 -1.631e-10 -1.06977e-13 184 170 144
-1.89285e-10 -1.631e-10 -1.06977e-13 184 170 144
-1.89392e-10 -1.631e-10 -1.06977e-13 184 170 144
-1.89499e-10 -1.631e-10 -1.06977e-13 184 170 144
-1.89606e-10 -1.631e-10 -1.06977e-13 184 170 144
-1.88643e-10 -1.63207e-10 -1.06977e-13 185 171 144
-1.8875e-10 -1.63207e-10 -1.06977e-13 185 171 144
-1.88857e-10 -1.63207e-10 -1.06977e-13 185 171 144
-1.88964e-10 -1.63207e-10 -1.06977e-13 185 171 144
-1.89071e-10 -1.63207e-10 -1.06977e-13 185 171 144
-1.89178e-10 -1.63207e-10 -1.06977e-13 184 170 144
-1.89285e-10 -1.63207e-10 -1.06977e-13 184 170 144
-1.89392e-10 -1.63207e-10 -1.06977e-13 184 170 144
-1.89499e-10 -1.63207e-10 -1.06977e-13 184 170 144
-1.89606e-10 -1.63207e-10 -1.06977e-13 184 170 144
-1.89713e-10 -1.63207e-10 -1.06977e-13 184 170 144
-1.90044e-10 -1.6462e-10 -1.07832e-13 185 171 144
-1.88643e-10 -1.63314e-10 -1.06977e-13 185 171 144
-1.8875e-10 -1.63314e-10 -1.06977e-13 185 171 144
-1.88857e-10 -1.63314e-10 -1.06977e-13 185 171 144
-1.88964e-10 -1.63314e-10 -1.06977e-13 185 171 144
-1.89071e-10 -1.63314e-10 -1.06977e-13 185 171 144
-1.89178e-10 -1.63314e-10 -1.06977e-13 185 171 144
-1.89285e-10 -1.63314e-10 -1.06977e-13 185 171 144
-1.89392e-10 -1.63314e-10 -1.06977e-13 184 170 144
-1.89499e-10 -1.63314e-10 -1.06977e-13 184 170 144
-1.89606e-10 -1.63314e-10 -1.06977e-13 184 170 144
-1.89713e-10 -1.63314e-10 -1.06977e-13 184 170 144
-1.88643e-10 -1.63421e-10 -1.06977e-13 185 171 144
-1.8875e-10 -1.63421e-10 -1.06977e-13 184 170 143
-1.88857e-10 -1.63421e-10 -1.06977e-13 184 170 143
-1.88964e-10 -1.63421e-10 -1.06977e-13 184 170 143
-1.89071e-10 -1.63421e-10 -1.06977e-13 185 171 144
-1.89178e-10 -1.63421e-10 -1.06977e-13 185 171 144
-1.89285e-10 -1.63421e-10 -1.06977e-13 185 171 144
-1.89392e-10 -1.63421e-10 -1.06977e-13 185 171 144
-1.89499e-10 -1.63421e-10 -1.06977e-13 185 171 144
-1.89606e-10 -1.63421e-10 -1.06977e-13 184 170 144
-1.89713e-10 -1.63421e-10 -1.06977e-13 184 170 144
-1.8982e-10 -1.63421e-10 -1.06977e-13 184 170 144
-1.90044e-10 -1.64836e-10 -1.07832e-13 184 170 143
-1.88643e-10 -1.63528e-10 -1.06977e-13 184 170 143
-1.8875e-10 -1.63528e-10 -1.06977e-13 184 170 143
-1.88964e-10 -1.63528e-10 -1.06977e-13 184 170 143
-1.89071e-10 -1.63528e-10 -1.06977e-13 184 170 143
-1.89178e-10 -1.63528e-10 -1.06977e-13 184 170 143
-1.89285e-10 -1.63528e-10 -1.06977e-13 184 170 143
-1.89392e-10 -1.63528e-10 -1.06977e-13 185 171 144
-1.89499e-10 -1.63528e-10 -1.06977e-13 185 171 144
-1.89606e-10 -1.63528e-10 -1.06977e-13 185 171 144
-1.89713e-10 -1.63528e-10 -1.06977e-13 184 170 143
-1.8982e-10 -1.63528e-10 -1.06977e-13 184 170 143
-1.89927e-10 -1.63528e-10 -1.06977e-13 184 170 143
-1.90483e-10 -1.65606e-10 -1.08265e-13 183 169 142
-1.90209e-10 -1.65274e-10 -1.08049e-13 183 169 142
-1.90127e-10 -1.65109e-10 -1.0794e-13 183 169 142
-1.90425e-10 -1.65274e-10 -1.08049e-13 184 170 143
-1.88643e-10 -1.63635e-10 -1.06977e-13 184 170 143
-1.88964e-10 -1.63635e-10 -1.06977e-13 184 170 143
-1.89071e-10 -1.63635e-10 -1.06977e-13 184 170 143
-1.89178e-10 -1.63635e-10 -1.06977e-13 184 170 143
-1.89285e-10 -1.63635e-10 -1.06977e-13 184 170 143
-1.89392e-10 -1.63635e-10 -1.06977e-13 184 170 143
-1.89499e-10 -1.63635e-10 -1.06977e-13 184 170 143
-1.89606e-10 -1.63635e-10 -1.06977e-13 184 170 143
-1.89713e-10 -1.63635e-10 -1.06977e-13 184 170 143
-1.8982e-10 -1.63635e-10 -1.06977e-13 184 170 143
-1.89927e-10 -1.63635e-10 -1.06977e-13 184 170 143
-1.90101e-10 -1.65382e-10 -1.08049e-13 183 169 142
-1.90019e-10 -1.65217e-10 -1.0794e-13 183 169 142
-1.89936e-10 -1.65052e-10 -1.07832e-13 183 169 142
-1.90235e-10 -1.65217e-10 -1.0794e-13 183 169 142
-1.88643e-10 -1.63742e-10 -1.06977e-13 184 170 143
-1.88964e-10 -1.63742e-10 -1.06977e-13 184 170 143
-1.89071e-10 -1.63742e-10 -1.06977e-13 184 170 143
-1.89178e-10 -1.63742e-10 -1.06977e-13 184 170 143
-1.89285e-10 -1.63742e-10 -1.06977e-13 184 170 143
-1.89392e-10 -1.63742e-10 -1.06977e-13 184 170 143
-1.89499e-10 -1.63742e-10 -1.06977e-13 184 170 143
-1.89606e-10 -1.63742e-10 -1.06977e-13 184 170 143
-1.89713e-10 -1.63742e-10 -1.06977e-13 184 170 143
-1.8982e-10 -1.63742e-10 -1.06977e-13 184 170 143
-1.89927e-10 -1.63742e-10 -1.06977e-13 184 170 143
-1.90034e-10 -1.63742e-10 -1.06977e-13 184 170 143
-1.90483e-10 -1.65823e-10 -1.08265e-13 183 169 142
-1.90209e-10 -1.6549e-10 -1.08049e-13 183 169 142
-1.90317e-10 -1.6549e-10 -1.08049e-13 183 169 142
-1.90808e-10 -1.65823e-10 -1.08265e-13 183 169 142
-1.90558e-10 -1.65325e-10 -1.0794e-13 184 170 143
-1.88964e-10 -1.63849e-10 -1.06977e-13 184 170 143
-1.89071e-10 -1.63849e-10 -1.06977e-13 184 170 143
-1.89178e-10 -1.63849e-10 -1.06977e-13 184 170 143
-1.89285e-10 -1.63849e-10 -1.06977e-13 184 170 143
-1.89392e-10 -1.63849e-10 -1.06977e-13 184 170 143
-1.89499e-10 -1.63849e-10 -1.06977e-13 184 170 143
-1.89606e-10 -1.63849e-10 -1.06977e-13 184 170 143
-1.89713e-10 -1.63849e-10 -1.06977e-13 184 170 143
-1.8982e-10 -1.63849e-10 -1.06977e-13 184 170 143
-1.89927e-10 -1.63849e-10 -1.06977e-13 184 170 143
-1.90034e-10 -1.63849e-10 -1.06977e-13 184 170 143
-1.90483e-10 -1.65931e-10 -1.08265e-13 182 168 141
-1.90999e-10 -1.66098e-10 -1.08374e-13 183 169 142
-1.90558e-10 -1.65433e-10 -1.0794e-13 183 169 142
-1.88964e-10 -1.63956e-10 -1.06977e-13 184 170 143
-1.89071e-10 -1.63956e-10 -1.06977e-13 184 170 143
-1.89285e-10 -1.63956e-10 -1.06977e-13 183 169 142
-1.89392e-10 -1.63956e-10 -1.06977e-13 183 169 142
-1.89499e-10 -1.63956e-10 -1.06977e-13 183 169 142
-1.89606e-10 -1.63956e-10 -1.06977e-13 183 169 142
-1.89713e-10 -1.63956e-10 -1.06977e-13 183 169 142
-1.8982e-10 -1.63956e-10 -1.06977e-13 183 169 142
-1.89927e-10 -1.63956e-10 -1.06977e-13 183 169 142
-1.90034e-10 -1.63956e-10 -1.06977e-13 184 170 143
-1.90141e-10 -1.63956e-10 -1.06977e-13 184 170 143
-1.90999e-10 -1.66206e-10 -1.08374e-13 182 168 141
-1.90558e-10 -1.65541e-10 -1.0794e-13 183 169 142
-1.88964e-10 -1.64063e-10 -1.06977e-13 183 169 142
-1.89071e-10 -1.64063e-10 -1.06977e-13 183 169 142
-1.89285e-10 -1.64063e-10 -1.06977e-13 183 169 142
-1.89392e-10 -1.64063e-10 -1.06977e-13 183 169 142
-1.89499e-10 -1.64063e-10 -1.06977e-13 183 169 142
-1.89606e-10 -1.64063e-10 -1.06977e-13 183 169 142
-1.89713e-10 -1.64063e-10 -1.06977e-13 183 169 142
-1.8982e-10 -1.64063e-10 -1.06977e-13 183 169 142
-1.89927e-10 -1.64063e-10 -1.06977e-13 183 169 142
-1.90034e-10 -1.64063e-10 -1.06977e-13 183 169 142
-1.90141e-10 -1.64063e-10 -1.06977e-13 183 169 142
-1.91577e-10 -1.66817e-10 -1.08702e-13 182 168 141
-1.90152e-10 -1.65483e-10 -1.07832e-13 182 168 141
-1.90749e-10 -1.65814e-10 -1.08049e-13 182 168 141
-1.88964e-10 -1.6417e-10 -1.06977e-13 182 168 141
-1.89071e-10 -1.6417e-10 -1.06977e-13 182 168 141
-1.89285e-10 -1.6417e-10 -1.06977e-13 182 168 141
-1.89392e-10 -1.6417e-10 -1.06977e-13 183 169 142
-1.89499e-10 -1.6417e-10 -1.06977e-13 183 169 142
-1.89606e-10 -1.6417e-10 -1.06977e-13 183 169 142
-1.89713e-10 -1.6417e-10 -1.06977e-13 183 169 142
-1.8982e-10 -1.6417e-10 -1.06977e-13 183 169 142
-1.89927e-10 -1.6417e-10 -1.06977e-13 183 169 142
-1.90034e-10 -1.6417e-10 -1.06977e-13 183 169 142
-1.90141e-10 -1.6417e-10 -1.06977e-13 183 169 142
-1.92158e-10 -1.67432e-10 -1.09032e-13 182 168 141
-1.90533e-10 -1.65923e-10 -1.08049e-13 182 168 141
-1.90832e-10 -1.66089e-10 -1.08157e-13 182 168 141
-1.91132e-10 -1.66256e-10 -1.08265e-13 182 168 141
-1.89392e-10 -1.64276e-10 -1.06977e-13 182 168 141
-1.89499e-10 -1.64276e-10 -1.06977e-13 182 168 141
-1.89606e-10 -1.64276e-10 -1.06977e-13 182 168 141
-1.89713e-10 -1.64276e-10 -1.06977e-13 182 168 141
-1.8982e-10 -1.64276e-10 -1.06977e-13 183 169 142
-1.89927e-10 -1.64276e-10 -1.06977e-13 183 169 142
-1.90034e-10 -1.64276e-10 -1.06977e-13 183 169 142
-1.90141e-10 -1.64276e-10 -1.06977e-13 183 169 142
-1.90248e-10 -1.64276e-10 -1.06977e-13 183 169 142
-1.92547e-10 -1.67881e-10 -1.09253e-13 182 168 141
-1.90916e-10 -1.66364e-10 -1.08265e-13 182 168 141
-1.90832e-10 -1.66197e-10 -1.08157e-13 182 168 141
-1.91132e-10 -1.66364e-10 -1.08265e-13 182 168 141
-1.89392e-10 -1.64383e-10 -1.06977e-13 182 168 141
-1.89499e-10 -1.64383e-10 -1.06977e-13 182 168 141
-1.89606e-10 -1.64383e-10 -1.06977e-13 182 168 141
-1.89713e-10 -1.64383e-10 -1.06977e-13 182 168 141
-1.8982e-10 -1.64383e-10 -1.06977e-13 182 168 141
-1.89927e-10 -1.64383e-10 -1.06977e-13 182 168 141
-1.90034e-10 -1.64383e-10 -1.06977e-13 183 169 142
-1.90141e-10 -1.64383e-10 -1.06977e-13 183 169 142
-1.90248e-10 -1.64383e-10 -1.06977e-13 183 169 142
-1.92743e-10 -1.68161e-10 -1.09364e-13 181 167 140
-1.913e-10 -1.66807e-10 -1.08483e-13 182 168 141
-1.91408e-10 -1.66807e-10 -1.08483e-13 182 168 141
-1.91324e-10 -1.6664e-10 -1.08374e-13 182 168 141
-1.89392e-10 -1.6449e-10 -1.06977e-13 182 168 141
-1.89499e-10 -1.6449e-10 -1.06977e-13 182 168 141
-1.89606e-10 -1.6449e-10 -1.06977e-13 182 168 141
-1.89713e-10 -1.6449e-10 -1.06977e-13 182 168 141
-1.8982e-10 -1.6449e-10 -1.06977e-13 182 168 141
-1.89927e-10 -1.6449e-10 -1.06977e-13 182 168 141
-1.90034e-10 -1.6449e-10 -1.06977e-13 182 168 141
-1.90141e-10 -1.6449e-10 -1.06977e-13 182 168 141
-1.90248e-10 -1.6449e-10 -1.06977e-13 182 168 141
-1.92743e-10 -1.6827e-10 -1.09364e-13 181 167 140
-1.91108e-10 -1.66748e-10 -1.08374e-13 181 167 140
-1.90641e-10 -1.66247e-10 -1.08049e-13 181 167 140
-1.90941e-10 -1.66413e-10 -1.08157e-13 182 168 141
-1.89499e-10 -1.64597e-10 -1.06977e-13 182 168 141
-1.89606e-10 -1.64597e-10 -1.06977e-13 182 168 141
-1.89713e-10 -1.64597e-10 -1.06977e-13 182 168 141
-1.8982e-10 -1.64597e-10 -1.06977e-13 182 168 141
-1.89927e-10 -1.64597e-10 -1.06977e-13 182 168 141
-1.90034e-10 -1.64597e-10 -1.06977e-13 182 168 141
-1.90141e-10 -1.64597e-10 -1.06977e-13 182 168 141
-1.90248e-10 -1.64597e-10 -1.06977e-13 182 168 141
-1.92353e-10 -1.68038e-10 -1.09142e-13 180 166 139
-1.90724e-10 -1.66522e-10 -1.08157e-13 181 167 140
-1.90368e-10 -1.66022e-10 -1.07832e-13 181 167 140
-1.89392e-10 -1.64704e-10 -1.06977e-13 181 167 140
-1.89499e-10 -1.64704e-10 -1.06977e-13 181 167 140
-1.89606e-10 -1.64704e-10 -1.06977e-13 181 167 140
-1.89713e-10 -1.64704e-10 -1.06977e-13 182 168 141
-1.8982e-10 -1.64704e-10 -1.06977e-13 182 168 141
-1.89927e-10 -1.64704e-10 -1.06977e-13 182 168 141
-1.90034e-10 -1.64704e-10 -1.06977e-13 182 168 141
-1.90141e-10 -1.64704e-10 -1.06977e-13 182 168 141
-1.90248e-10 -1.64704e-10 -1.06977e-13 182 168 141
-1.90355e-10 -1.64704e-10 -1.06977e-13 182 168 141
-1.92353e-10 -1.68148e-10 -1.09142e-13 180 166 139
-1.90724e-10 -1.6663e-10 -1.08157e-13 180 166 139
-1.90368e-10 -1.6613e-10 -1.07832e-13 181 167 140
-1.89392e-10 -1.64811e-10 -1.06977e-13 181 167 140
-1.89499e-10 -1.64811e-10 -1.06977e-13 181 167 140
-1.89606e-10 -1.64811e-10 -1.06977e-13 181 167 140
-1.89713e-10 -1.64811e-10 -1.06977e-13 181 167 140
-1.8982e-10 -1.64811e-10 -1.06977e-13 181 167 140
-1.89927e-10 -1.64811e-10 -1.06977e-13 182 168 141
-1.90034e-10 -1.64811e-10 -1.06977e-13 182 168 141
-1.90141e-10 -1.64811e-10 -1.06977e-13 182 168 141
-1.90248e-10 -1.64811e-10 -1.06977e-13 182 168 141
-1.90355e-10 -1.64811e-10 -1.06977e-13 182 168 141
-1.92353e-10 -1.68257e-10 -1.09142e-13 181 167 140
-1.90533e-10 -1.66571e-10 -1.08049e-13 180 166 139
-1.89499e-10 -1.64918e-10 -1.06977e-13 181 167 140
-1.89606e-10 -1.64918e-10 -1.06977e-13 181 167 140
-1.89713e-10 -1.64918e-10 -1.06977e-13 181 167 140
-1.8982e-10 -1.64918e-10 -1.06977e-13 181 167 140
-1.89927e-10 -1.64918e-10 -1.06977e-13 181 167 140
-1.90034e-10 -1.64918e-10 -1.06977e-13 182 168 141
-1.90141e-10 -1.64918e-10 -1.06977e-13 182 168 141
-1.90248e-10 -1.64918e-10 -1.06977e-13 182 168 141
-1.90355e-10 -1.64918e-10 -1.06977e-13 182 168 141
-1.92158e-10 -1.68196e-10 -1.09032e-13 181 167 140
-1.90533e-10 -1.66679e-10 -1.08049e-13 181 167 140
-1.89606e-10 -1.65025e-10 -1.06977e-13 181 167 140
-1.89713e-10 -1.65025e-10 -1.06977e-13 181 167 140
-1.8982e-10 -1.65025e-10 -1.06977e-13 181 167 140
-1.89927e-10 -1.65025e-10 -1.06977e-13 181 167 140
-1.90034e-10 -1.65025e-10 -1.06977e-13 181 167 140
-1.90141e-10 -1.65025e-10 -1.06977e-13 181 167 140
-1.90248e-10 -1.65025e-10 -1.06977e-13 182 168 141
-1.90355e-10 -1.65025e-10 -1.06977e-13 182 168 141
-1.92353e-10 -1.68475e-10 -1.09142e-13 180 166 139
-1.90533e-10 -1.66787e-10 -1.08049e-13 181 167 140
-1.89606e-10 -1.65132e-10 -1.06977e-13 181 167 140
-1.89713e-10 -1.65132e-10 -1.06977e-13 181 167 140
-1.8982e-10 -1.65132e-10 -1.06977e-13 181 167 140
-1.89927e-10 -1.65132e-10 -1.06977e-13 181 167 140
-1.90034e-10 -1.65132e-10 -1.06977e-13 181 167 140
-1.90141e-10 -1.65132e-10 -1.06977e-13 181 167 140
-1.90248e-10 -1.65132e-10 -1.06977e-13 181 167 140
-1.90355e-10 -1.65132e-10 -1.06977e-13 181 167 140
-1.90462e-10 -1.65132e-10 -1.06977e-13 182 168 141
-1.92158e-10 -1.68414e-10 -1.09032e-13 180 166 139
-1.90533e-10 -1.66895e-10 -1.08049e-13 180 166 139
-1.89606e-10 -1.65239e-10 -1.06977e-13 181 167 140
-1.89713e-10 -1.65239e-10 -1.06977e-13 181 167 140
-1.8982e-10 -1.65239e-10 -1.06977e-13 181 167 140
-1.89927e-10 -1.65239e-10 -1.06977e-13 181 167 140
-1.90034e-10 -1.65239e-10 -1.06977e-13 181 167 140
-1.90141e-10 -1.65239e-10 -1.06977e-13 181 167 140
-1.90248e-10 -1.65239e-10 -1.06977e-13 181 167 140
-1.90355e-10 -1.65239e-10 -1.06977e-13 181 167 140
-1.90462e-10 -1.65239e-10 -1.06977e-13 181 167 140
-1.92158e-10 -1.68523e-10 -1.09032e-13 180 166 139
-1.90342e-10 -1.66836e-10 -1.0794e-13 180 166 139
-1.89606e-10 -1.65346e-10 -1.06977e-13 181 167 140
-1.89713e-10 -1.65346e-10 -1.06977e-13 181 167 140
-1.8982e-10 -1.65346e-10 -1.06977e-13 181 167 140
-1.89927e-10 -1.65346e-10 -1.06977e-13 181 167 140
-1.90034e-10 -1.65346e-10 -1.06977e-13 181 167 140
-1.90141e-10 -1.65346e-10 -1.06977e-13 181 167 140
-1.90248e-10 -1.65346e-10 -1.06977e-13 181 167 140
-1.90355e-10 -1.65346e-10 -1.06977e-13 181 167 140
-1.90462e-10 -1.65346e-10 -1.06977e-13 181 167 140
-1.91964e-10 -1.68461e-10 -1.08922e-13 180 166 139
-1.90152e-10 -1.66777e-10 -1.07832e-13 180 166 139
-1.89606e-10 -1.65453e-10 -1.06977e-13 181 167 140
-1.89713e-10 -1.65453e-10 -1.06977e-13 181 167 140
-1.8982e-10 -1.65453e-10 -1.06977e-13 181 167 140
-1.89927e-10 -1.65453e-10 -1.06977e-13 181 167 140
-1.90034e-10 -1.65453e-10 -1.06977e-13 181 167 140
-1.90141e-10 -1.65453e-10 -1.06977e-13 181 167 140
-1.90248e-10 -1.65453e-10 -1.06977e-13 181 167 140
-1.90355e-10 -1.65453e-10 -1.06977e-13 181 167 140
-1.90462e-10 -1.65453e-10 -1.06977e-13 181 167 140
-1.90569e-10 -1.65453e-10 -1.06977e-13 181 167 140
-1.91964e-10 -1.6857e-10 -1.08922e-13 180 166 139
-1.8982e-10 -1.6556e-10 -1.06977e-13 181 167 140
-1.89927e-10 -1.6556e-10 -1.06977e-13 181 167 140
-1.90141e-10 -1.6556e-10 -1.06977e-13 181 167 140
-1.90248e-10 -1.6556e-10 -1.06977e-13 181 167 140
-1.90355e-10 -1.6556e-10 -1.06977e-13 181 167 140
-1.90462e-10 -1.6556e-10 -1.06977e-13 181 167 140
-1.90569e-10 -1.6556e-10 -1.06977e-13 181 167 140
-1.92158e-10 -1.6885e-10 -1.09032e-13 180 166 139
-1.8982e-10 -1.65667e-10 -1.06977e-13 181 167 140
-1.89927e-10 -1.65667e-10 -1.06977e-13 181 167 140
-1.90141e-10 -1.65667e-10 -1.06977e-13 181 167 140
-1.90248e-10 -1.65667e-10 -1.06977e-13 181 167 140
-1.90355e-10 -1.65667e-10 -1.06977e-13 181 167 140
-1.90462e-10 -1.65667e-10 -1.06977e-13 181 167 140
-1.90569e-10 -1.65667e-10 -1.06977e-13 181 167 140
-1.9177e-10 -1.68618e-10 -1.08812e-13 180 166 139
-1.8982e-10 -1.65774e-10 -1.06977e-13 181 167 140
-1.89927e-10 -1.65774e-10 -1.06977e-13 181 167 140
-1.90141e-10 -1.65774e-10 -1.06977e-13 181 167 140
-1.90248e-10 -1.65774e-10 -1.06977e-13 181 167 140
-1.90355e-10 -1.65774e-10 -1.06977e-13 181 167 140
-1.90462e-10 -1.65774e-10 -1.06977e-13 181 167 140
-1.90569e-10 -1.65774e-10 -1.06977e-13 181 167 140
-1.89499e-10 -1.65881e-10 -1.06977e-13 180 166 139
-1.89606e-10 -1.65881e-10 -1.06977e-13 181 167 140
-1.8982e-10 -1.65881e-10 -1.06977e-13 181 167 140
-1.89927e-10 -1.65881e-10 -1.06977e-13 181 167 140
-1.90141e-10 -1.65881e-10 -1.06977e-13 181 167 140
-1.90248e-10 -1.65881e-10 -1.06977e-13 181 167 140
-1.90355e-10 -1.65881e-10 -1.06977e-13 181 167 140
-1.90462e-10 -1.65881e-10 -1.06977e-13 181 167 140
-1.90569e-10 -1.65881e-10 -1.06977e-13 181 167 140
-1.97122e-10 -1.73745e-10 -1.11976e-13 180 166 139
-1.94807e-10 -1.71606e-10 -1.10597e-13 180 166 139
-1.89499e-10 -1.65988e-10 -1.06977e-13 180 166 139
-1.89606e-10 -1.65988e-10 -1.06977e-13 180 166 139
-1.8982e-10 -1.65988e-10 -1.06977e-13 181 167 140
-1.89927e-10 -1.65988e-10 -1.06977e-13 181 167 140
-1.90141e-10 -1.65988e-10 -1.06977e-13 181 167 140
-1.90248e-10 -1.65988e-10 -1.06977e-13 181 167 140
-1.90355e-10 -1.65988e-10 -1.06977e-13 181 167 140
-1.90462e-10 -1.65988e-10 -1.06977e-13 181 167 140
-1.90569e-10 -1.65988e-10 -1.06977e-13 181 167 140
-1.94408e-10 -1.71365e-10 -1.10371e-13 180 166 139
-1.91577e-10 -1.68774e-10 -1.08702e-13 180 166 139
-1.88643e-10 -1.66095e-10 -1.06977e-13 180 166 139
-1.89499e-10 -1.66095e-10 -1.06977e-13 180 166 139
-1.89606e-10 -1.66095e-10 -1.06977e-13 180 166 139
-1.8982e-10 -1.66095e-10 -1.06977e-13 181 167 140
-1.89927e-10 -1.66095e-10 -1.06977e-13 181 167 140
-1.90141e-10 -1.66095e-10 -1.06977e-13 181 167 140
-1.90248e-10 -1.66095e-10 -1.06977e-13 181 167 140
-1.90355e-10 -1.66095e-10 -1.06977e-13 181 167 140
-1.90462e-10 -1.66095e-10 -1.06977e-13 181 167 140
-1.90569e-10 -1.66095e-10 -1.06977e-13 181 167 140
-1.90999e-10 -1.68374e-10 -1.08374e-13 180 166 139
-1.88643e-10 -1.66202e-10 -1.06977e-13 180 166 139
-1.88857e-10 -1.66202e-10 -1.06977e-13 180 166 139
-1.89606e-10 -1.66202e-10 -1.06977e-13 180 166 139
-1.89713e-10 -1.66202e-10 -1.06977e-13 180 166 139
-1.8982e-10 -1.66202e-10 -1.06977e-13 180 166 139
-1.90141e-10 -1.66202e-10 -1.06977e-13 181 167 140
-1.90248e-10 -1.66202e-10 -1.06977e-13 181 167 140
-1.90355e-10 -1.66202e-10 -1.06977e-13 181 167 140
-1.90462e-10 -1.66202e-10 -1.06977e-13 181 167 140
-1.90569e-10 -1.66202e-10 -1.06977e-13 181 167 140
-1.90616e-10 -1.68144e-10 -1.08157e-13 180 166 139
-1.88643e-10 -1.66309e-10 -1.06977e-13 180 166 139
-1.8875e-10 -1.66309e-10 -1.06977e-13 180 166 139
-1.88857e-10 -1.66309e-10 -1.06977e-13 180 166 139
-1.89606e-10 -1.66309e-10 -1.06977e-13 180 166 139
-1.89713e-10 -1.66309e-10 -1.06977e-13 180 166 139
-1.8982e-10 -1.66309e-10 -1.06977e-13 180 166 139
-1.89927e-10 -1.66309e-10 -1.06977e-13 180 166 139
-1.90034e-10 -1.66309e-10 -1.06977e-13 180 166 139
-1.90141e-10 -1.66309e-10 -1.06977e-13 181 167 140
-1.90248e-10 -1.66309e-10 -1.06977e-13 180 166 139
-1.90355e-10 -1.66309e-10 -1.06977e-13 180 166 139
-1.90462e-10 -1.66309e-10 -1.06977e-13 180 166 139
-1.90425e-10 -1.68084e-10 -1.08049e-13 180 166 139
-1.88643e-10 -1.66416e-10 -1.06977e-13 180 166 139
-1.8875e-10 -1.66416e-10 -1.06977e-13 180 166 139
-1.88857e-10 -1.66416e-10 -1.06977e-13 180 166 139
-1.89606e-10 -1.66416e-10 -1.06977e-13 180 166 139
-1.89713e-10 -1.66416e-10 -1.06977e-13 180 166 139
-1.8982e-10 -1.66416e-10 -1.06977e-13 180 166 139
-1.89927e-10 -1.66416e-10 -1.06977e-13 180 166 139
-1.90034e-10 -1.66416e-10 -1.06977e-13 180 166 139
-1.90141e-10 -1.66416e-10 -1.06977e-13 180 166 139
-1.90248e-10 -1.66416e-10 -1.06977e-13 180 166 139
-1.90355e-10 -1.66416e-10 -1.06977e-13 180 166 139
-1.90462e-10 -1.66416e-10 -1.06977e-13 180 166 139
-1.90425e-10 -1.68192e-10 -1.08049e-13 180 166 139
-1.88643e-10 -1.66523e-10 -1.06977e-13 180 166 139
-1.8875e-10 -1.66523e-10 -1.06977e-13 180 166 139
-1.88857e-10 -1.66523e-10 -1.06977e-13 180 166 139
-1.88964e-10 -1.66523e-10 -1.06977e-13 180 166 139
-1.89606e-10 -1.66523e-10 -1.06977e-13 180 166 139
-1.89713e-10 -1.66523e-10 -1.06977e-13 180 166 139
-1.8982e-10 -1.66523e-10 -1.06977e-13 180 166 139
-1.89927e-10 -1.66523e-10 -1.06977e-13 180 166 139
-1.90034e-10 -1.66523e-10 -1.06977e-13 180 166 139
-1.90141e-10 -1.66523e-10 -1.06977e-13 180 166 139
-1.90248e-10 -1.66523e-10 -1.06977e-13 180 166 139
-1.90355e-10 -1.66523e-10 -1.06977e-13 180 166 139
-1.90235e-10 -1.68131e-10 -1.0794e-13 180 166 139
-1.88643e-10 -1.6663e-10 -1.06977e-13 180 166 139
-1.8875e-10 -1.6663e-10 -1.06977e-13 180 166 139
-1.88857e-10 -1.6663e-10 -1.06977e-13 180 166 139
-1.88964e-10 -1.6663e-10 -1.06977e-13 180 166 139
